# .PCD v0.7 - Point Cloud Data file format
VERSION 0.7
FIELDS x y z
SIZE 4 4 4
TYPE F F F
COUNT 1 1 1
WIDTH 1345
HEIGHT 1
VIEWPOINT 0 0 0 1 0 0 0
POINTS 1345
DATA ascii
0.49329087 -0.0034083063 0.024738073
0.4932999 -0.0046046712 0.024738431
0.49330893 -0.0058010351 0.024738729
0.49331799 -0.0069973972 0.024738967
0.49332702 -0.0081937592 0.024739325
0.49333605 -0.0093901195 0.024739683
0.49334508 -0.010586478 0.02474004
0.49335414 -0.011782836 0.024740398
0.49336314 -0.012979193 0.024740696
0.4933722 -0.014175548 0.024740934
0.49338126 -0.015371903 0.024741292
0.49339032 -0.016568257 0.02474159
0.49339932 -0.017764607 0.024741948
0.49340835 -0.018960958 0.024742305
0.49341741 -0.020157307 0.024742663
0.49342769 -0.021353677 0.024740279
0.49343836 -0.022550063 0.024737239
0.493449 -0.023746461 0.024734259
0.49345922 -0.024942856 0.024732053
0.49346903 -0.026139246 0.024730742
0.49347886 -0.02733564 0.024729431
0.49348867 -0.028532039 0.024728239
0.49349853 -0.029728446 0.024726808
0.49350834 -0.030924855 0.024725616
0.49351817 -0.032121271 0.024724185
0.49352795 -0.033317689 0.024722993
0.49353778 -0.034514114 0.024721682
0.4936502 -0.035716966 0.024506032
0.49385056 -0.036926452 0.024106503
0.49405113 -0.038137406 0.023706615
0.494252 -0.039349835 0.023306072
0.4944531 -0.04056374 0.022905231
0.49465442 -0.041779116 0.022503793
0.494856 -0.042995978 0.02210182
0.49505785 -0.044214323 0.021699429
0.49527568 -0.045435615 0.021263659
0.49572706 -0.046681114 0.020339966
0.49640787 -0.047953062 0.018936992
0.49834901 -0.049361743 0.014901161
0.49399096 0.044821359 0.019800127
0.49352676 0.043527871 0.020795584
0.49320889 0.042265125 0.021483243
0.49300006 0.041024677 0.021941602
0.49279153 0.039785951 0.022399306
0.49258333 0.038548946 0.022856355
0.49239713 0.037317343 0.02326721
0.49221313 0.03608761 0.023673177
0.49202943 0.034859389 0.024078786
0.49184602 0.033632703 0.024483562
0.4917354 0.032418743 0.024735391
0.49174452 0.03122378 0.024735451
0.4917537 0.030028822 0.024735451
0.49176288 0.028833857 0.02473551
0.49177206 0.027638899 0.02473551
0.49178123 0.026443934 0.02473557
0.49179041 0.025248973 0.02473563
0.49179959 0.024054011 0.02473563
0.49180871 0.022859054 0.024735689
0.49181789 0.021664092 0.024735689
0.49182707 0.020469127 0.024735749
0.49183625 0.01927417 0.024735689
0.49184543 0.018079212 0.024735749
0.49185461 0.016884247 0.024735749
0.49186373 0.015689285 0.024735868
0.49187297 0.014494332 0.024735749
0.49188215 0.013299372 0.024735749
0.49189135 0.012104414 0.024735749
0.49190053 0.010909455 0.024735749
0.49190971 0.0097144973 0.024735749
0.49191892 0.0085195377 0.024735749
0.4919281 0.0073245801 0.024735749
0.49193728 0.0061296225 0.024735749
0.49194646 0.004934663 0.024735749
0.49195564 0.0037397053 0.024735749
0.49196482 0.0025447439 0.024735749
0.49197403 0.0013497863 0.024735749
0.49198321 0.00015482679 0.024735749
0.49199229 -0.0010401364 0.024735987
0.4920013 -0.0022351015 0.024736285
0.49201033 -0.0034300666 0.024736643
0.49201936 -0.0046250299 0.024736941
0.49202839 -0.0058199912 0.024737298
0.49203742 -0.0070149517 0.024737597
0.49204648 -0.0082099112 0.024737895
0.49205548 -0.0094048688 0.024738252
0.49206448 -0.010599826 0.02473861
0.49207354 -0.011794781 0.024738908
0.49208257 -0.012989737 0.024739265
0.4920916 -0.01418469 0.024739563
0.49210063 -0.015379642 0.024739861
0.49210966 -0.016574593 0.024740219
0.49211869 -0.017769543 0.024740517
0.49212772 -0.018964492 0.024740875
0.49213779 -0.020159453 0.024738967
0.4921484 -0.021354431 0.024735987
0.49215904 -0.022549419 0.024733007
0.49216914 -0.023744406 0.02473104
0.49217898 -0.024939392 0.024729669
0.49218872 -0.026134383 0.024728477
0.49219853 -0.027329376 0.024727106
0.49220833 -0.028524375 0.024725854
0.49221817 -0.029719379 0.024724543
0.49222797 -0.030914389 0.024723232
0.49223775 -0.032109402 0.02472192
0.49224758 -0.033304423 0.024720609
0.49225736 -0.034499444 0.024719357
0.49243349 -0.035704926 0.024369061
0.49263293 -0.036913231 0.023969889
0.4928326 -0.038123008 0.02357018
0.49303254 -0.039334252 0.023169994
0.4932327 -0.040546972 0.022769392
0.49343309 -0.041761164 0.022368312
0.49363375 -0.042976834 0.021966636
0.49386251 -0.044196483 0.021506071
0.49416798 -0.045424957 0.020884693
0.49465078 -0.046672918 0.019891262
0.49551713 -0.047963217 0.018093288
0.49253404 0.043506555 0.020177484
0.49214834 0.042231314 0.021011233
0.4918108 0.040967882 0.021743238
0.49158525 0.039727069 0.022238731
0.49137807 0.038491249 0.022695482
0.49117255 0.037257373 0.023148715
0.49098951 0.036028899 0.023554444
0.4908067 0.03480193 0.023959637
0.4906241 0.033576474 0.024364412
0.49046171 0.032355621 0.02472645
0.49046755 0.031161541 0.024733543
0.49047673 0.029967973 0.024733603
0.49048588 0.028774412 0.024733603
0.49049503 0.027580844 0.024733663
0.49050421 0.026387287 0.024733663
0.49051332 0.025193719 0.024733722
0.4905225 0.024000159 0.024733782
0.49053168 0.022806598 0.024733722
0.49054083 0.021613037 0.024733782
0.49055001 0.020419473 0.024733782
0.4905591 0.019225908 0.024733901
0.49056834 0.018032348 0.024733841
0.49057752 0.016838787 0.024733841
0.4905867 0.015645226 0.024733841
0.49059588 0.014451664 0.024733841
0.49060503 0.013258103 0.024733841
0.49061421 0.012064543 0.024733841
0.49062338 0.010870982 0.024733841
0.49063253 0.0096774194 0.024733841
0.49064174 0.0084838606 0.024733782
0.49065092 0.0072902981 0.024733782
0.49066007 0.0060967375 0.024733782
0.49066925 0.0049031768 0.024733782
0.49067843 0.0037096161 0.024733782
0.49068761 0.0025160573 0.024733782
0.49069667 0.0013224892 0.024733961
0.49070576 0.00012892298 0.024734199
0.49071479 -0.0010646451 0.024734557
0.49072379 -0.0022582114 0.024734855
0.49073279 -0.0034517758 0.024735212
0.49074182 -0.0046453401 0.02473551
0.49075082 -0.0058389036 0.024735868
0.49075985 -0.0070324652 0.024736226
0.49076891 -0.0082260249 0.024736464
0.49077788 -0.0094195846 0.024736822
0.49078691 -0.010613143 0.024737179
0.49079591 -0.0118067 0.024737477
0.49080497 -0.013000255 0.024737835
0.49081397 -0.014193811 0.024738133
0.49082297 -0.015387364 0.024738491
0.49083197 -0.016580915 0.024738789
0.49084103 -0.017774466 0.024739087
0.49085093 -0.018968025 0.024737597
0.49086154 -0.020161599 0.024734557
0.49087211 -0.021355182 0.024731576
0.49088207 -0.022548763 0.024729908
0.49089184 -0.023742346 0.024728715
0.49090165 -0.024935935 0.024727345
0.49091142 -0.026129527 0.024726093
0.49092123 -0.027323125 0.024724722
0.49093103 -0.028516727 0.02472347
0.49094075 -0.029710332 0.024722219
0.49095061 -0.030903945 0.024720848
0.49096039 -0.032097559 0.024719536
0.49097019 -0.033291183 0.024718225
0.49102092 -0.034487233 0.024630666
0.49121919 -0.035692908 0.024232328
0.49141768 -0.03690004 0.023833454
0.49161643 -0.038108639 0.023434103
0.49181542 -0.039318707 0.023034155
0.49201465 -0.040530238 0.02263391
0.49220777 -0.041742723 0.02224648
0.49245369 -0.042961158 0.021747828
0.49271584 -0.044182852 0.021215081
0.4931187 -0.045419656 0.020385861
0.49367058 -0.046673991 0.019242883
0.49518603 -0.048030064 0.016070366
0.49119684 0.042217679 0.0203107
0.4907741 0.040938646 0.021226287
0.49043855 0.039678529 0.021956921
0.49017501 0.038433656 0.022534907
0.48996916 0.037200727 0.022990763
0.4897683 0.0359703 0.023435891
0.48958644 0.034744583 0.023840785
0.48940474 0.033520378 0.024245203
0.48922461 0.032297872 0.024646342
0.48919356 0.031099441 0.024731636
0.48920271 0.029907277 0.024731636
0.48921186 0.028715106 0.024731696
0.48922101 0.027522942 0.024731696
0.48923016 0.026330767 0.024731755
0.48923934 0.025138607 0.024731696
0.48924845 0.023946436 0.024731755
0.48925757 0.022754265 0.024731815
0.48926675 0.021562094 0.024731874
0.48927593 0.02036993 0.024731815
0.48928508 0.019177767 0.024731815
0.48929423 0.017985599 0.024731815
0.48930341 0.016793432 0.024731815
0.48931259 0.015601264 0.024731815
0.48932174 0.014409099 0.024731815
0.48933089 0.013216931 0.024731815
0.48934007 0.012024766 0.024731815
0.48934925 0.010832602 0.024731755
0.48935843 0.0096404348 0.024731755
0.4893676 0.0084482692 0.024731755
0.48937675 0.0072561018 0.024731755
0.4893859 0.0060639363 0.024731755
0.48939508 0.0048717689 0.024731755
0.4894042 0.0036795996 0.024731874
0.48941317 0.0024874229 0.024732172
0.4894222 0.0012952499 0.02473253
0.4894312 0.00010307692 0.024732828
0.4894402 -0.0010890961 0.024733186
0.48944923 -0.0022812672 0.024733484
0.48945823 -0.0034734355 0.024733782
0.48946726 -0.0046656029 0.02473408
0.48947626 -0.0058577713 0.024734437
0.48948526 -0.0070499368 0.024734735
0.48949426 -0.0082421023 0.024735093
0.48950326 -0.009434266 0.024735451
0.48951232 -0.010626428 0.024735689
0.48952132 -0.01181859 0.024736047
0.48953032 -0.01301075 0.024736404
0.48953933 -0.014202909 0.024736702
0.48954833 -0.015395067 0.02473706
0.48955733 -0.016587224 0.024737358
0.48956704 -0.017779382 0.024736285
0.48957759 -0.018971555 0.024733365
0.4895882 -0.020163737 0.024730265
0.48959801 -0.021355918 0.024728894
0.48960781 -0.022548102 0.024727583
0.48961756 -0.023740292 0.024726272
0.48962736 -0.024932485 0.02472502
0.48963714 -0.026124686 0.024723709
0.48964685 -0.027316887 0.024722457
0.48965663 -0.028509095 0.024721086
0.4896664 -0.029701309 0.024719894
0.48967621 -0.030893529 0.024718523
0.48968601 -0.03208575 0.024717212
0.48969579 -0.033277977 0.0247159
0.48980984 -0.034476407 0.024493992
0.49000719 -0.035680912 0.024095833
0.49020475 -0.036886871 0.023697317
0.49040258 -0.038094297 0.023298204
0.49060047 -0.039303172 0.022899032
0.4907977 -0.040513441 0.02250129
0.49104917 -0.041729622 0.021988809
0.49135816 -0.042952623 0.021354795
0.49175936 -0.044186231 0.020525634
0.49221095 -0.045427576 0.019589961
0.49287575 -0.046693146 0.018203557
0.48986322 0.040932335 0.020443559
0.4894039 0.039649844 0.021440685
0.48907042 0.038393021 0.022170007
0.48876935 0.037144423 0.022830188
0.48856479 0.035914384 0.023285091
0.48836857 0.034687355 0.023722112
0.48818785 0.033464387 0.024126232
0.48800808 0.032243043 0.024528146
0.48792252 0.031037496 0.024729669
0.48793167 0.029846715 0.024729729
0.48794082 0.028655948 0.024729669
0.48794997 0.027465167 0.024729729
0.48795912 0.026274389 0.024729729
0.48796821 0.025083611 0.024729848
0.48797736 0.023892829 0.024729848
0.48798651 0.022702063 0.024729848
0.48799568 0.021511281 0.024729848
0.48800483 0.020320507 0.024729848
0.48801398 0.019129733 0.024729848
0.48802313 0.017938958 0.024729848
0.48803228 0.016748184 0.024729848
0.48804143 0.01555741 0.024729848
0.48805058 0.014366634 0.024729848
0.48805979 0.01317586 0.024729729
0.48806894 0.011985086 0.024729729
0.48807809 0.01079431 0.024729729
0.48808724 0.0096035339 0.024729729
0.48809642 0.0084127579 0.024729729
0.48810554 0.0072219837 0.024729729
0.48811466 0.0060312059 0.024729848
0.48812369 0.0048404224 0.024730146
0.48813266 0.003649639 0.024730384
0.48814166 0.0024588536 0.024730802
0.48815069 0.0012680721 0.0247311
0.48815966 7.729046e-05 0.024731457
0.48816866 -0.0011134883 0.024731755
0.48817766 -0.0023042671 0.024732113
0.48818666 -0.0034950431 0.024732411
0.48819566 -0.0046858191 0.024732709
0.48820472 -0.0058765942 0.024733007
0.48821369 -0.0070673684 0.024733365
0.48822266 -0.0082581406 0.024733663
0.48823166 -0.0094489129 0.02473402
0.48824069 -0.010639682 0.024734378
0.48824969 -0.011830452 0.024734616
0.48825866 -0.01302122 0.024734974
0.48826769 -0.014211986 0.024735332
0.48827666 -0.015402752 0.02473563
0.48828611 -0.016593518 0.024734974
0.48829669 -0.017784292 0.024731934
0.48830718 -0.018975075 0.024729073
0.48831695 -0.020165861 0.024727762
0.48832673 -0.02135665 0.02472651
0.48833644 -0.022547442 0.024725199
0.48834622 -0.023738243 0.024723947
0.48835599 -0.024929047 0.024722636
0.48836571 -0.026119854 0.024721324
0.48837548 -0.027310666 0.024720073
0.48838526 -0.028501485 0.024718761
0.48839504 -0.029692305 0.02471751
0.48840481 -0.030883133 0.024716139
0.48841459 -0.032073967 0.024714828
0.4884243 -0.033264801 0.024713576
0.48860115 -0.034465604 0.024357438
0.48879755 -0.035668939 0.023959637
0.48899421 -0.036873735 0.023561358
0.48918432 -0.0380795 0.023177087
0.48939896 -0.039288498 0.022740662
0.48966712 -0.040503301 0.022190571
0.4900046 -0.041725822 0.021493316
0.49040383 -0.042956211 0.02066499
0.49090016 -0.044198379 0.019630432
0.49145168 -0.045449488 0.018478632
0.49296719 -0.046799302 0.01527983
0.48853326 0.0396505 0.02057606
0.48803782 0.03836488 0.021654427
0.4877063 0.037111349 0.022382438
0.4874011 0.035864875 0.023054242
0.48716491 0.034632176 0.023578465
0.48697335 0.033408523 0.02400744
0.48679394 0.032188326 0.024410248
0.48665446 0.030975686 0.024727821
0.48666358 0.029786298 0.024727821
0.4866727 0.02859691 0.024727881
0.48668182 0.027407518 0.024727941
0.48669094 0.026218133 0.024727941
0.48670012 0.025028748 0.024727881
0.48670924 0.023839364 0.024727881
0.48671839 0.022649975 0.024727881
0.48672754 0.021460591 0.024727881
0.48673666 0.020271203 0.024727881
0.48674583 0.01908181 0.024727881
0.48675495 0.017892422 0.024727881
0.48676407 0.016703038 0.024727881
0.48677331 0.015513653 0.024727821
0.48678243 0.014324265 0.024727821
0.48679158 0.013134878 0.024727821
0.48680073 0.011945492 0.024727821
0.48680985 0.010756103 0.024727821
0.486819 0.0095667168 0.024727821
0.48682815 0.0083773304 0.024727821
0.48683715 0.0071879327 0.024728119
0.48684615 0.0059985369 0.024728417
0.48685515 0.0048091393 0.024728715
0.48686415 0.0036197454 0.024729013
0.48687315 0.0024303515 0.024729371
0.48688212 0.0012409594 0.024729669
0.48689109 5.1565468e-05 0.024730027
0.48690009 -0.0011378247 0.024730325
0.48690909 -0.002327214 0.024730682
0.48691806 -0.0035166023 0.02473104
0.48692703 -0.0047059888 0.024731338
0.48693606 -0.0058953743 0.024731576
0.48694503 -0.007084758 0.024731934
0.48695403 -0.0082741426 0.024732232
0.48696303 -0.0094635244 0.02473259
0.486972 -0.010652906 0.024732888
0.48698097 -0.011842286 0.024733245
0.48698997 -0.013031665 0.024733603
0.48699898 -0.014221043 0.024733841
0.48700821 -0.01541042 0.024733603
0.48701879 -0.016599799 0.024730623
0.48702914 -0.017789189 0.02472806
0.48703888 -0.018978581 0.024726808
0.48704866 -0.020167978 0.024725378
0.4870584 -0.02135738 0.024724185
0.48706812 -0.022546787 0.024722934
0.48707786 -0.023736198 0.024721622
0.48708761 -0.024925612 0.024720371
0.48709738 -0.026115036 0.02471894
0.4871071 -0.027304459 0.024717748
0.48711687 -0.028493889 0.024716377
0.48712659 -0.029683324 0.024715126
0.48713636 -0.030872764 0.024713755
0.48714614 -0.03206221 0.024712503
0.48719943 -0.033254094 0.024618208
0.48739469 -0.034454815 0.024221241
0.4875896 -0.035656951 0.023825109
0.48777264 -0.036859713 0.023454189
0.48800451 -0.038067311 0.02297914
0.4883011 -0.039281487 0.022366226
0.488655 -0.040502418 0.021630943
0.489052 -0.041729581 0.020803928
0.48959261 -0.0429722 0.019670665
0.49028182 -0.044232391 0.018220484
0.49149665 -0.045547515 0.015649498
0.48720694 0.038372174 0.020708263
0.48667729 0.037083998 0.021864414
0.4863463 0.035833493 0.022594273
0.48604292 0.034590177 0.023264766
0.48576966 0.033354118 0.023870766
0.48558253 0.032133773 0.024291873
0.48540592 0.030916562 0.02469033
0.48539844 0.029726023 0.024725914
0.48540759 0.02853802 0.024725914
0.48541674 0.027350022 0.024725914
0.48542589 0.026162019 0.024725914
0.48543501 0.02497402 0.024725914
0.48544413 0.023786014 0.024725914
0.48545325 0.022598011 0.024725914
0.4854624 0.021410009 0.024725914
0.48547152 0.020222006 0.024725914
0.48548067 0.019034008 0.024725914
0.48548979 0.017846005 0.024725854
0.48549893 0.016658003 0.024725854
0.48550805 0.01547 0.024725854
0.4855172 0.014281997 0.024725854
0.48552632 0.013093995 0.024725854
0.48553544 0.011905992 0.024725854
0.48554456 0.010717988 0.024725854
0.48555362 0.0095299799 0.024725974
0.48556262 0.0083419681 0.024726331
0.48557159 0.0071539544 0.024726629
0.48558056 0.0059659407 0.024727046
0.48558956 0.0047779325 0.024727285
0.48559853 0.0035899226 0.024727583
0.4856075 0.0024019126 0.024728
0.48561653 0.0012139082 0.024728239
0.48562551 2.5901943e-05 0.024728596
0.48563445 -0.0011621043 0.024728954
0.48564345 -0.0023501068 0.024729311
0.48565242 -0.0035381094 0.02472955
0.48566139 -0.0047261119 0.024729967
0.48567039 -0.0059141107 0.024730146
0.48567939 -0.0071021086 0.024730504
0.48568836 -0.0082901064 0.024730802
0.48569733 -0.0094781034 0.0247311
0.48570633 -0.010666098 0.024731457
0.48571527 -0.011854094 0.024731874
0.48572427 -0.013042087 0.024732172
0.48573333 -0.014230078 0.024732292
0.48574385 -0.015418066 0.024729311
0.48575404 -0.016606065 0.024727046
0.48576379 -0.017794069 0.024725676
0.4857735 -0.018982077 0.024724424
0.48578322 -0.020170089 0.024723113
0.48579299 -0.021358106 0.024721801
0.48580271 -0.022546129 0.02472055
0.48581249 -0.023734156 0.024719238
0.48582217 -0.02492219 0.024717987
0.48583192 -0.026110226 0.024716675
0.48584166 -0.027298266 0.024715424
0.48585141 -0.028486311 0.024714112
0.48586112 -0.029674362 0.024712801
0.48587087 -0.030862421 0.02471143
0.48588061 -0.032050479 0.024710238
0.48599625 -0.033244494 0.024481952
0.48618346 -0.034443624 0.024100661
0.48636764 -0.035643943 0.023725748
0.48664156 -0.036851693 0.023158669
0.48693892 -0.038063172 0.022541344
0.48730916 -0.039282382 0.021768153
0.4877398 -0.040509179 0.02086556
0.48828822 -0.041749038 0.019710839
0.48916027 -0.043021254 0.017863095
0.49036998 -0.044330858 0.015292466
0.48588425 0.037097342 0.020839989
0.48535544 0.03581278 0.021999061
0.48499036 0.034559429 0.022805393
0.48468879 0.03331925 0.023474753
0.48438784 0.032081582 0.024142742
0.48423761 0.03086946 0.024486065
0.48415583 0.029668814 0.024681866
0.48414543 0.028479269 0.024723947
0.48415455 0.027292645 0.024723947
0.48416367 0.026106028 0.024723947
0.48417282 0.024919407 0.024723947
0.48418194 0.023732783 0.024723947
0.48419106 0.022546167 0.024723947
0.48420018 0.021359542 0.024723947
0.4842093 0.020172926 0.024723887
0.48421842 0.018986309 0.024723887
0.48422754 0.017799685 0.024723887
0.48423666 0.016613068 0.024723887
0.48424578 0.015426448 0.024723887
0.4842549 0.014239825 0.024723887
0.48426402 0.013053205 0.024723887
0.48427308 0.011866579 0.024724007
0.48428208 0.010679945 0.024724305
0.48429102 0.0094933119 0.024724662
0.48430002 0.0083066858 0.024724901
0.48430899 0.0071200524 0.024725258
0.48431796 0.0059334226 0.024725556
0.48432693 0.0047467947 0.024725974
0.4843359 0.0035601687 0.024726212
0.48434484 0.0023735408 0.024726629
0.48435378 0.0011869166 0.024726927
0.48436281 2.9616058e-07 0.024727225
0.48437178 -0.0011863261 0.024727464
0.48438078 -0.0023729466 0.024727881
0.48438972 -0.003559567 0.024728119
0.48439869 -0.0047461865 0.024728537
0.48440766 -0.0059328042 0.024728835
0.4844166 -0.00711942 0.024729192
0.4844256 -0.0083060339 0.02472949
0.48443455 -0.0094926488 0.024729788
0.48444355 -0.010679261 0.024730086
0.48445252 -0.011865873 0.024730444
0.48446149 -0.013052483 0.024730742
0.48447189 -0.014239084 0.024728
0.48448199 -0.015425696 0.024725974
0.48449165 -0.016612314 0.024724662
0.48450136 -0.017798938 0.024723351
0.48451108 -0.018985564 0.024722099
0.48452079 -0.020172197 0.024720788
0.48453054 -0.021358833 0.024719536
0.48454025 -0.022545476 0.024718225
0.48454994 -0.023732122 0.024716973
0.48455971 -0.024918772 0.024715662
0.48456943 -0.026105426 0.024714351
0.48457915 -0.027292088 0.024713099
0.48458886 -0.028478753 0.024711788
0.48459858 -0.029665425 0.024710476
0.48460829 -0.030852098 0.024709225
0.4846229 -0.032039031 0.024697483
0.4847818 -0.033234142 0.02437526
0.48498988 -0.034433372 0.023947418
0.48528501 -0.035639733 0.023332298
0.48558378 -0.036848556 0.022709429
0.48596698 -0.038065694 0.021905065
0.48644325 -0.039292783 0.020900548
0.48699635 -0.040529612 0.019730866
0.48804018 -0.041811638 0.017506123
0.48924479 -0.043115735 0.014935732
0.48456514 0.035825975 0.020971477
0.48403722 0.034545034 0.02213341
0.48363841 0.033289149 0.023015976
0.48336419 0.032056116 0.023628891
0.48311275 0.030828809 0.024192512
0.48299745 0.029623954 0.024461627
0.48291618 0.028425036 0.02465713
0.48289531 0.027235413 0.02472204
0.4829044 0.026050171 0.02472204
0.48291352 0.024864929 0.02472204
0.48292261 0.023679687 0.02472204
0.48293173 0.022494452 0.02472198
0.48294085 0.02130921 0.02472198
0.48294997 0.020123968 0.02472198
0.48295909 0.018938722 0.02472198
0.48296821 0.01775348 0.02472198
0.4829773 0.016568234 0.02472198
0.48298639 0.015382996 0.02472198
0.48299551 0.014197752 0.02472198
0.48300451 0.013012497 0.024722278
0.48301345 0.011827242 0.024722576
0.48302242 0.010641985 0.024722934
0.48303136 0.0094567295 0.024723291
0.48304033 0.00827148 0.024723589
0.4830493 0.0070862323 0.024723887
0.48305824 0.0059009809 0.024724245
0.48306724 0.0047157314 0.024724483
0.48307618 0.0035304856 0.024724841
0.48308513 0.0023452379 0.024725199
0.4830941 0.0011599939 0.024725497
0.48310304 -2.525188e-05 0.024725854
0.48311201 -0.001210494 0.024726152
0.48312098 -0.0023957333 0.02472645
0.48312998 -0.0035809744 0.024726748
0.48313892 -0.0047662137 0.024727046
0.48314786 -0.0059514521 0.024727404
0.48315683 -0.0071366895 0.024727762
0.48316577 -0.0083219251 0.02472806
0.48317474 -0.0095071597 0.024728417
0.48318374 -0.010692392 0.024728715
0.48319271 -0.011877624 0.024728954
0.4832029 -0.013062844 0.02472657
0.48321283 -0.014248073 0.024724901
0.48322248 -0.01543331 0.024723649
0.4832322 -0.01661855 0.024722338
0.48324192 -0.017803796 0.024721086
0.48325163 -0.018989045 0.024719775
0.48326129 -0.020174298 0.024718523
0.48327103 -0.021359559 0.024717152
0.48328075 -0.022544822 0.0247159
0.48329043 -0.02373009 0.024714589
0.48330015 -0.024915364 0.024713278
0.48330986 -0.026100641 0.024712026
0.48331958 -0.027285926 0.024710655
0.48332942 -0.028471217 0.024709165
0.48333919 -0.029656511 0.024707675
0.48337811 -0.030843232 0.024643362
0.48348397 -0.032033712 0.024434388
0.48364159 -0.033227868 0.024113595
0.48393235 -0.03443123 0.02350539
0.48424694 -0.035638314 0.022845745
0.4846285 -0.036852341 0.022041619
0.48514989 -0.038079347 0.020935357
0.48579389 -0.039319661 0.019564569
0.48692143 -0.040603541 0.017149687
0.48327118 0.034561656 0.021055758
0.48272258 0.033280745 0.022267401
0.48237789 0.032036468 0.023035944
0.48212692 0.03080943 0.023600876
0.48188335 0.029585538 0.024149835
0.4817633 0.028381726 0.024430275
0.48167932 0.02718406 0.024632514
0.48164809 0.025994441 0.024720013
0.48165721 0.024810581 0.024720013
0.48166633 0.023626713 0.024720013
0.48167542 0.022442842 0.024720013
0.48168451 0.021258978 0.024720013
0.48169363 0.020075111 0.024720013
0.48170272 0.018891243 0.024720013
0.4817118 0.017707376 0.024720013
0.48172092 0.016523512 0.024720013
0.48172987 0.01533963 0.024720252
0.48173887 0.014155749 0.02472055
0.48174781 0.012971871 0.024720848
0.48175675 0.011787992 0.024721146
0.48176569 0.010604113 0.024721503
0.48177463 0.0094202366 0.024721861
0.48178357 0.0082363579 0.024722159
0.48179257 0.0070524868 0.024722457
0.48180151 0.0058686119 0.024722815
0.48181045 0.0046847407 0.024723053
0.48181942 0.0035008695 0.02472347
0.48182836 0.0023170002 0.024723828
0.48183727 0.0011331309 0.024724066
0.48184624 -5.0738454e-05 0.024724483
0.48185521 -0.0012346031 0.024724782
0.48186415 -0.0024184696 0.02472502
0.48187315 -0.0036023324 0.024725378
0.48188207 -0.0047861962 0.024725616
0.48189101 -0.005970058 0.024726033
0.48189998 -0.007153919 0.024726331
0.48190892 -0.008337778 0.02472657
0.48191786 -0.0095216362 0.024726927
0.4819268 -0.010705493 0.024727345
0.48193681 -0.011889336 0.024725378
0.48194659 -0.013073186 0.024723887
0.4819563 -0.014257043 0.024722517
0.48196596 -0.015440905 0.024721324
0.48197567 -0.016624771 0.024720013
0.48198536 -0.017808642 0.024718702
0.48199505 -0.018992517 0.024717391
0.4820047 -0.020176398 0.024716198
0.48201445 -0.021360282 0.024714828
0.48202416 -0.022544172 0.024713457
0.48203394 -0.023728069 0.024712026
0.48204374 -0.02491197 0.024710476
0.48205349 -0.026095875 0.024709105
0.48206326 -0.027279789 0.024707615
0.48207301 -0.028463703 0.024706185
0.48213601 -0.029650023 0.02458936
0.48224199 -0.030838862 0.024379253
0.48240122 -0.032031275 0.024053633
0.48260978 -0.03322766 0.023621142
0.48291373 -0.034431383 0.022981703
0.48331463 -0.035643667 0.022132158
0.48385918 -0.036868833 0.020971119
0.48461878 -0.038113739 0.019343913
0.48580414 -0.039396964 0.016793609
0.48200965 0.033305325 0.021076381
0.48150337 0.032034487 0.022200644
0.4811421 0.03079013 0.023008585
0.48089245 0.029565534 0.023572862
0.48065659 0.028344991 0.024107158
0.48054069 0.027143525 0.02437979
0.48044515 0.025945874 0.024607956
0.48040378 0.024756355 0.024717987
0.48041287 0.023573859 0.024717987
0.48042196 0.022391366 0.024717987
0.48043102 0.021208869 0.024717987
0.48044011 0.020026373 0.024718046
0.4804492 0.01884388 0.024717987
0.48045823 0.017661372 0.024718225
0.4804672 0.016478864 0.024718523
0.48047611 0.015296357 0.024718881
0.48048505 0.014113845 0.024719179
0.48049402 0.012931339 0.024719477
0.48050296 0.011748834 0.024719775
0.4805119 0.01056633 0.024720132
0.48052084 0.0093838256 0.02472043
0.48052979 0.0082013216 0.024720788
0.4805387 0.0070188213 0.024721086
0.48054767 0.0058363192 0.024721384
0.48055661 0.0046538208 0.024721742
0.48056555 0.0034713242 0.02472204
0.48057449 0.0022888277 0.024722338
0.48058343 0.0011063293 0.024722695
0.48059237 -7.6165423e-05 0.024722993
0.48060131 -0.0012586582 0.024723351
0.48061025 -0.0024411511 0.024723649
0.48061919 -0.003623642 0.024723947
0.48062813 -0.0048061321 0.024724305
0.48063707 -0.0059886202 0.024724603
0.48064601 -0.0071711075 0.024724901
0.48065495 -0.0083535947 0.024725199
0.4806639 -0.0095360801 0.024725556
0.48067367 -0.010718549 0.024724066
0.48068336 -0.011901026 0.024722755
0.48069304 -0.013083506 0.024721563
0.4807027 -0.014265993 0.024720192
0.48071235 -0.015448483 0.02471894
0.48072207 -0.016630977 0.024717629
0.48073176 -0.017813478 0.024716318
0.48074153 -0.018995982 0.024714887
0.48075128 -0.020178491 0.024713457
0.48076105 -0.021361008 0.024711907
0.48077083 -0.022543527 0.024710476
0.48078054 -0.023726054 0.024708986
0.48079026 -0.024908584 0.024707615
0.48080003 -0.026091121 0.024706125
0.48080981 -0.027273662 0.024704635
0.48089659 -0.028459389 0.024535537
0.48100322 -0.02964662 0.024323046
0.48116356 -0.030837251 0.02399379
0.48137102 -0.032031566 0.023561656
0.48167962 -0.033233188 0.022909462
0.48206306 -0.03444171 0.022094369
0.48259681 -0.035662897 0.020951986
0.4835079 -0.036914095 0.018988132
0.48468822 -0.0381919 0.016438067
0.48081282 0.0320618 0.020961821
0.48029035 0.030791426 0.022126079
0.479909 0.029546583 0.022981286
0.47966075 0.02832442 0.023544967
0.47943255 0.027107159 0.02406466
0.47932076 0.02590801 0.024329364
0.47921917 0.024711186 0.024571776
0.47916234 0.023521131 0.024716079
0.4791714 0.022340002 0.024716079
0.47918051 0.021158876 0.024716079
0.47918952 0.019977747 0.024716139
0.47919849 0.018796602 0.024716437
0.4792074 0.017615462 0.024716794
0.47921634 0.016434317 0.024717152
0.47922525 0.015253181 0.02471751
0.47923422 0.014072042 0.024717748
0.47924316 0.012890903 0.024718106
0.47925204 0.011709765 0.024718463
0.47926098 0.010528632 0.024718761
0.47926992 0.0093474966 0.024719059
0.47927886 0.0081663635 0.024719417
0.4792878 0.0069852341 0.024719715
0.47929674 0.0058041047 0.024720013
0.47930562 0.0046229716 0.024720371
0.47931457 0.003441846 0.024720669
0.47932348 0.0022607166 0.024721026
0.47933245 0.0010795929 0.024721265
0.47934139 -0.00010153092 0.024721563
0.47935033 -0.0012826566 0.02472192
0.47935924 -0.0024637785 0.024722278
0.47936815 -0.0036449004 0.024722576
0.47937712 -0.0048260204 0.024722874
0.47938603 -0.0060071386 0.024723232
0.47939497 -0.0071882568 0.02472347
0.47940391 -0.0083693741 0.024723828
0.47941336 -0.0095504783 0.024722993
0.47942305 -0.010731583 0.024721801
0.47943267 -0.01191269 0.02472043
0.47944236 -0.013093803 0.024719179
0.47945213 -0.01427492 0.024717689
0.47946185 -0.015456043 0.024716198
0.47947159 -0.016637171 0.024714768
0.47948131 -0.017818304 0.024713337
0.47949106 -0.018999442 0.024711907
0.4795008 -0.020180585 0.024710417
0.47951058 -0.021361733 0.024708927
0.47952032 -0.022542886 0.024707496
0.47953004 -0.023724046 0.024706066
0.47953981 -0.024905208 0.024704635
0.47955558 -0.02608658 0.024689972
0.47966087 -0.02727136 0.024479568
0.47976714 -0.028456941 0.024266899
0.47992846 -0.029645775 0.023934007
0.480156 -0.030839071 0.023456275
0.48047912 -0.032039162 0.02276963
0.48086143 -0.033245102 0.021953523
0.48140475 -0.0344638 0.020785391
0.48239839 -0.035715956 0.01863265
0.48357373 -0.036988355 0.016082883
0.47962844 0.030822316 0.020825148
0.47907734 0.029550584 0.022057354
0.47869092 0.028307619 0.022927225
0.47843474 0.027086498 0.023510635
0.47821122 0.025872046 0.024022162
0.47810346 0.024675174 0.024279058
0.4780024 0.023480097 0.024521291
0.47792375 0.022288753 0.024714172
0.47793266 0.021108976 0.02471453
0.47794157 0.019929199 0.024714828
0.47795051 0.018749421 0.024715245
0.47795945 0.017569648 0.024715483
0.47796836 0.016389875 0.024715722
0.47797728 0.0152101 0.024716079
0.47798619 0.014030328 0.024716437
0.4779951 0.012850557 0.024716794
0.47800404 0.011670789 0.024717033
0.47801298 0.010491019 0.024717391
0.47802186 0.0093112532 0.024717748
0.47803083 0.0081314873 0.024718046
0.47803971 0.0069517214 0.024718344
0.47804868 0.0057719592 0.024718583
0.47805756 0.0045921952 0.024719
0.4780665 0.003412433 0.024719357
0.47807539 0.0022326726 0.024719656
0.47808433 0.0010529123 0.024720013
0.47809327 -0.00012684427 0.024720311
0.47810221 -0.0013065999 0.02472055
0.47811109 -0.0024863556 0.024720907
0.47812003 -0.0036661103 0.024721265
0.47812897 -0.0048458651 0.024721563
0.47813785 -0.006025617 0.02472192
0.47814679 -0.007205368 0.024722159
0.47815597 -0.0083851116 0.02472192
0.47816569 -0.009564844 0.02472049
0.47817546 -0.010744582 0.024719059
0.47818512 -0.011924325 0.024717629
0.47819489 -0.013104074 0.024716198
0.47820458 -0.014283827 0.024714768
0.47821432 -0.015463585 0.024713278
0.47822404 -0.016643349 0.024711907
0.47823381 -0.017823119 0.024710357
0.47824353 -0.019002892 0.024708867
0.47825325 -0.020182673 0.024707437
0.47826296 -0.021362457 0.024706006
0.47827271 -0.022542246 0.024704576
0.47828239 -0.023722041 0.024703145
0.47832221 -0.024902735 0.024635732
0.47842792 -0.026085895 0.02442342
0.47853374 -0.027269814 0.02421087
0.4786979 -0.028456924 0.023870349
0.47894573 -0.029649062 0.023346066
0.47927308 -0.030847013 0.022647142
0.47964591 -0.032049894 0.0218485
0.48023742 -0.03326818 0.020569563
0.48129034 -0.034519307 0.018277764
0.47845742 0.029586868 0.020664513
0.47786683 0.02831235 0.021988869
0.477485 0.027072696 0.022852182
0.47721487 0.025851795 0.023468852
0.47700059 0.024640726 0.023962021
0.4769254 0.023449836 0.024148166
0.47685611 0.02226037 0.024321139
0.47685021 0.021079415 0.02435416
0.47685364 0.019899691 0.024366558
0.47685707 0.018720018 0.024379075
0.47686043 0.017540382 0.024391592
0.47686386 0.016360795 0.024404049
0.47686726 0.015181251 0.024416625
0.47687066 0.014001753 0.024429023
0.47687405 0.012822302 0.02444154
0.47687745 0.011642896 0.024454057
0.47688085 0.010463534 0.024466455
0.47688431 0.009284215 0.024478972
0.47689003 0.0081051309 0.024486244
0.47689846 0.0069262795 0.024487674
0.47690678 0.0057474244 0.024489343
0.47691512 0.0045685805 0.024490774
0.47692356 0.0033897422 0.024492264
0.47693276 0.0022109579 0.024491906
0.47694224 0.0010321885 0.024491012
0.47695172 -0.00014658459 0.024490118
0.4769612 -0.0013253614 0.024489224
0.47697061 -0.0025041401 0.02448833
0.47698009 -0.0036829235 0.024487436
0.47698957 -0.0048617097 0.024486601
0.47699904 -0.0060404977 0.024485707
0.47700846 -0.0072192904 0.024484813
0.47701794 -0.0083980858 0.02448386
0.47702742 -0.009576885 0.024483025
0.47703439 -0.010755731 0.024487615
0.47703966 -0.011934582 0.024495959
0.47704488 -0.013113406 0.024504364
0.47705013 -0.014292197 0.024512887
0.47705537 -0.01547096 0.024521232
0.47706062 -0.016649691 0.024529636
0.47706586 -0.017828394 0.0245381
0.47707111 -0.019007066 0.024546444
0.47707883 -0.020185743 0.024549544
0.4770909 -0.021364486 0.024542868
0.47710299 -0.022543255 0.024536073
0.47712171 -0.023722218 0.024514854
0.47721523 -0.024903493 0.02432853
0.47730875 -0.026085436 0.024142206
0.47749114 -0.027271397 0.023760021
0.47773772 -0.02846141 0.023236215
0.47806942 -0.029657185 0.022524893
0.47844544 -0.03085771 0.021715701
0.47905225 -0.03207349 0.020397723
0.48018757 -0.033324391 0.017914474
0.47728851 0.028353674 0.020504057
0.47669715 0.027082266 0.021835566
0.47630551 0.025843712 0.02272433
0.47608054 0.024631122 0.023243308
0.47594023 0.023431638 0.023574531
0.4758054 0.022234047 0.023893476
0.47577572 0.021050705 0.023979485
0.47577918 0.019871684 0.023991942
0.47578254 0.018692696 0.024004459
0.475786 0.017513758 0.024016976
0.4757908 0.016335016 0.024026453
0.47579703 0.015156457 0.024032652
0.47580326 0.013977919 0.02403897
0.47580945 0.012799403 0.024045229
0.47581565 0.011620907 0.024051547
0.47582185 0.010442438 0.024057925
0.47582811 0.0092639886 0.024064124
0.47583431 0.0080855619 0.024070442
0.47584051 0.0069071613 0.02407676
0.47584671 0.0057287775 0.024083078
0.47585291 0.0045504197 0.024089396
0.47585917 0.0033720862 0.024095595
0.47586536 0.0021937732 0.024101913
0.47587159 0.0010154843 0.024108231
0.47587779 -0.00016278587 0.024114549
0.47588623 -0.001340921 0.02411586
0.47589517 -0.0025190292 0.024116158
0.47590405 -0.0036971383 0.024116516
0.47591302 -0.0048752436 0.024116814
0.47592193 -0.0060533499 0.024117112
0.47593087 -0.0072314534 0.024117351
0.47593975 -0.0084095588 0.024117708
0.47594866 -0.0095876604 0.024118006
0.4759568 -0.010765776 0.024120092
0.47596186 -0.011943926 0.024128854
0.47596693 -0.013122044 0.024137676
0.4759703 -0.01430014 0.024150312
0.47597367 -0.015478191 0.024162889
0.47598439 -0.016656213 0.024159133
0.47599649 -0.017834257 0.024152458
0.47600859 -0.019012325 0.024145663
0.47602069 -0.020190418 0.024138987
0.47603279 -0.021368533 0.024132192
0.47604489 -0.022546675 0.024125516
0.4760702 -0.023725184 0.024089515
0.47618872 -0.024906617 0.023847044
0.47633594 -0.026089888 0.023541033
0.47653222 -0.027276114 0.023126483
0.47686875 -0.028469697 0.022401273
0.47729087 -0.029669795 0.0214867
0.47796261 -0.030885592 0.020019352
0.47909772 -0.032131545 0.01752615
0.47614169 0.027125629 0.020299494
0.47561324 0.025866235 0.021496534
0.47522503 0.024630355 0.022381186
0.47505325 0.023426438 0.022783935
0.47494552 0.02223224 0.023043931
0.47488356 0.021044696 0.023202121
0.47488481 0.019865373 0.023219407
0.47488612 0.018686118 0.023236811
0.47488731 0.017506918 0.023254216
0.47488862 0.016327785 0.023271561
0.47488987 0.015148716 0.023288906
0.4748911 0.013969706 0.023306251
0.47489256 0.012790775 0.023323238
0.47490147 0.011612605 0.023323476
0.47491044 0.010434438 0.023323715
0.47491932 0.0092562642 0.023324072
0.47492826 0.0080780983 0.023324311
0.47493717 0.0068999305 0.023324668
0.47494608 0.0057217628 0.023324966
0.47495502 0.0045435987 0.023325205
0.47496396 0.0033654366 0.023325503
0.47497284 0.0021872725 0.023325801
0.47498176 0.0010091085 0.023326159
0.47499073 -0.00016904995 0.023326457
0.47499967 -0.0013472112 0.023326695
0.47500497 -0.0025255326 0.02333498
0.4750101 -0.0037038336 0.023343742
0.47501519 -0.0048821028 0.023352504
0.47502032 -0.0060603423 0.023361325
0.47502545 -0.0072385501 0.023370087
0.4750306 -0.0084167253 0.023378789
0.47503567 -0.0095948707 0.023387611
0.47504079 -0.010772984 0.023396373
0.47504592 -0.011951066 0.023405135
0.47505105 -0.013129117 0.023413837
0.47505614 -0.014307136 0.023422599
0.47506124 -0.015485124 0.023431361
0.47506636 -0.01666308 0.023440182
0.47507149 -0.017841006 0.023448825
0.4750762 -0.019018896 0.02345854
0.4750796 -0.020196732 0.023471057
0.47508299 -0.021374526 0.023483694
0.47508636 -0.022552272 0.02349633
0.47516599 -0.023731966 0.023339331
0.47529808 -0.024913795 0.023065805
0.47543025 -0.026096608 0.022791922
0.47571847 -0.027286336 0.022171199
0.47613859 -0.028483823 0.021257043
0.47688457 -0.029699562 0.019618452
0.47801498 -0.030940365 0.01712507
0.47460794 0.024662392 0.020985126
0.47434556 0.023445183 0.021592081
0.47415051 0.022238867 0.022048533
0.47408098 0.02104993 0.022224247
0.47408226 0.01987022 0.022241652
0.47408354 0.018690577 0.022259057
0.47408485 0.017510993 0.022276402
0.47408611 0.016331473 0.022293746
0.47408742 0.015152017 0.022311211
0.47409365 0.013973124 0.022317469
0.47410217 0.012794478 0.022318661
0.47411066 0.011615831 0.022319913
0.47411919 0.010437194 0.022321105
0.47412768 0.0092585515 0.022322416
0.47413617 0.0080799218 0.022323608
0.4741447 0.0069012959 0.0223248
0.47415322 0.0057226717 0.022326052
0.47415355 0.0045434851 0.022345603
0.47413743 0.0033632871 0.02240181
0.47414094 0.0021845046 0.022414148
0.47414511 0.0010057986 0.022425115
0.47415081 -0.00017278455 0.022432685
0.4741565 -0.0013513425 0.022440195
0.47416216 -0.0025298726 0.022447765
0.47416782 -0.0037083765 0.022455335
0.47417355 -0.0048868526 0.022462785
0.47417921 -0.0060653025 0.022470415
0.47418487 -0.0072437245 0.022477925
0.47419053 -0.0084221214 0.022485554
0.4741962 -0.0096004894 0.022493064
0.47420189 -0.010778831 0.022500634
0.47420755 -0.011957146 0.022508204
0.47421324 -0.013135433 0.022515714
0.4742189 -0.014313694 0.022523284
0.47422367 -0.015491929 0.02253294
0.47422826 -0.01667013 0.022542775
0.47423285 -0.017848294 0.022552788
0.4742375 -0.019026425 0.022562742
0.47424203 -0.020204518 0.022572756
0.47424668 -0.021382578 0.02258265
0.47425121 -0.0225606 0.022592723
0.47434139 -0.02374083 0.022411525
0.47450376 -0.024923887 0.022069156
0.47475839 -0.026111323 0.021520734
0.47505301 -0.027302243 0.020883024
0.47580773 -0.028514836 0.019218028
0.47363445 0.02228179 0.020424724
0.47347951 0.021080533 0.02079314
0.4734816 0.019899732 0.020808697
0.47348374 0.01871899 0.020824254
0.47348586 0.017538296 0.02083987
0.47348797 0.016357658 0.020855427
0.47349012 0.015177084 0.020870984
0.47349226 0.01399656 0.0208866
0.47349435 0.01281609 0.020902157
0.4734965 0.011635676 0.020917773
0.47349864 0.01045532 0.02093339
0.47350284 0.009275198 0.020944297
0.47351134 0.0080954675 0.020945489
0.47351986 0.0069157369 0.020946741
0.47351611 0.0057351105 0.02097553
0.47343874 0.004549453 0.021169543
0.47331944 0.0033617299 0.021457613
0.47320023 0.0021750424 0.021745503
0.47317764 0.00099495612 0.021816492
0.4731912 -0.00018293224 0.021806419
0.47320473 -0.0013608579 0.021796286
0.47321838 -0.0025388151 0.021786034
0.47323388 -0.0037167314 0.02177155
0.47336578 -0.0048903115 0.021495938
0.47350985 -0.0060644625 0.021192908
0.47354186 -0.0072430242 0.021141469
0.47354543 -0.0084225014 0.021153808
0.47354898 -0.0096019339 0.021166265
0.4735525 -0.010781322 0.021178663
0.47355604 -0.011960667 0.021191061
0.47355959 -0.013139966 0.021203399
0.47356308 -0.014319222 0.021215856
0.47356814 -0.01549843 0.021224856
0.4735744 -0.016677611 0.021231115
0.47358063 -0.017856767 0.021237493
0.47358692 -0.019035902 0.021243811
0.47359315 -0.020215014 0.021250069
0.47359937 -0.021394104 0.021256447
0.47360563 -0.022573169 0.021262765
0.47368294 -0.023754084 0.02110976
0.47384316 -0.024938058 0.020770669
0.47429305 -0.026133182 0.019782126
0.47494009 -0.027339388 0.018351436
0.47272339 0.0080977604 0.019929826
0.47246629 0.0068968721 0.020529866
0.47231817 0.0057061836 0.020884097
0.47219944 0.0045188107 0.021172166
0.47208086 0.0033324752 0.021459877
0.47196859 0.0021475572 0.021733165
0.4719348 0.00096815452 0.021829784
0.47194833 -0.00020835362 0.021819592
0.47196192 -0.0013848972 0.021809399
0.47197545 -0.0025614779 0.021799266
0.47200441 -0.0037374506 0.021754384
0.47212964 -0.0049099447 0.02149266
0.47227302 -0.0060827583 0.021189868
0.47241655 -0.0072566476 0.020886958
0.47260237 -0.0084305257 0.020488679
0.47283283 -0.0096048526 0.019989789
0.47306973 -0.010780845 0.019476473
0.47331578 -0.01195854 0.018942654
0.47331652 -0.013140515 0.01896143
0.4733173 -0.014322424 0.018980145
0.4733181 -0.015504265 0.018998802
0.47331887 -0.016686041 0.019017577
0.47331962 -0.017867748 0.019036293
0.47332036 -0.019049389 0.019055068
0.47332114 -0.020230964 0.019073784
0.47332266 -0.021412486 0.019090831
0.47332555 -0.022593979 0.019104779
0.47354722 -0.023781201 0.018625975
0.47377971 -0.024970461 0.018122792
0.47147357 0.0080621373 0.019957602
0.47121793 0.006862713 0.020556748
0.47108108 0.0056742318 0.020887017
0.47096306 0.0044882447 0.02117461
0.4708451 0.0033032857 0.021462083
0.4707402 0.0021201633 0.021719992
0.47069493 0.00094141997 0.021842837
0.47070843 -0.00023371354 0.021832705
0.47072196 -0.0014088815 0.021822572
0.47073543 -0.0025840877 0.021812499
0.47077775 -0.0037581222 0.021737278
0.47089633 -0.0049295332 0.021489322
0.471039 -0.0061010132 0.021187007
0.47118181 -0.0072735641 0.020884335
0.47137016 -0.0084460173 0.020478547
0.47159946 -0.0096190218 0.019980252
0.47183931 -0.010793614 0.019457996
0.47220039 -0.0119684 0.018661559
0.47022671 0.0080265999 0.019985199
0.46997252 0.0068286303 0.020583689
0.46984684 0.0056423526 0.020889878
0.46972948 0.0044577476 0.021177232
0.46961686 0.0032744762 0.021453679
0.46951458 0.0020928327 0.0217067
0.46945792 0.00091474503 0.02185595
0.4694714 -0.00025901571 0.021845877
0.46948487 -0.0014328118 0.021835744
0.46950531 -0.002606323 0.021809816
0.4695538 -0.0037787482 0.021720111
0.46966591 -0.0049490742 0.021485865
0.46980777 -0.0061192252 0.021184027
0.46994984 -0.0072904434 0.020881712
0.47014076 -0.0084614716 0.020468414
0.47036886 -0.0096331593 0.019970655
0.47061482 -0.0108063 0.019432425
0.47095844 -0.01198001 0.018672228
0.46898285 0.0079911444 0.020012796
0.46873224 0.0067948047 0.020605564
0.46861547 0.0056105461 0.020892799
0.46849871 0.0044273175 0.021179795
0.46839339 0.0032458641 0.021440804
0.46829173 0.0020655654 0.021693528
0.46822381 0.00088813342 0.021869063
0.46823725 -0.00028425641 0.021858931
0.46825072 -0.0014566826 0.021848857
0.46828431 -0.0026282147 0.02179265
0.46833259 -0.0037993267 0.021703064
0.46843848 -0.004968565 0.02148205
0.46857941 -0.0061373962 0.021181047
0.4687207 -0.0073072836 0.02087909
0.46891415 -0.0084768925 0.020458281
0.46914166 -0.0096472511 0.019959807
0.46939296 -0.010818956 0.019406915
0.46750301 0.0067616981 0.020608664
0.4673869 0.0055788178 0.0208956
0.46727389 0.0043971781 0.021175325
0.46717268 0.0032173134 0.021427989
0.46707159 0.0020383541 0.021680415
0.46699259 0.00086158514 0.021882057
0.46700603 -0.00030944124 0.021871984
0.46701938 -0.0014805002 0.021861851
0.46706611 -0.002650057 0.021775603
0.46711409 -0.0038198614 0.021686077
0.46721381 -0.0049880119 0.021478295
0.46735382 -0.0061555244 0.021178007
0.46749443 -0.0073240846 0.020876467
0.46769035 -0.0084922779 0.020448148
0.46792388 -0.009661166 0.019933701
0.46817386 -0.010831585 0.019381523
0.46627659 0.0067286622 0.020611942
0.46616113 0.0055471566 0.020898521
0.46605536 0.0043673515 0.021162808
0.46595472 0.0031888317 0.021415114
0.46585423 0.0020112041 0.021667302
0.46576422 0.0008350946 0.021895111
0.46577758 -0.00033456646 0.021885097
0.46580273 -0.0015036687 0.021847904
0.46585053 -0.0026718508 0.021758497
0.46589836 -0.0038403496 0.021669209
0.46599191 -0.0050074141 0.021474481
0.46613103 -0.0061736125 0.021175146
0.46627092 -0.0073408475 0.020873845
0.46646926 -0.0085076289 0.020438135
0.46670875 -0.0096750511 0.019907773
0.46695745 -0.010844187 0.019356132
0.46331322 0.042689987 0.023996115
0.46340841 0.041542582 0.023796558
0.46353993 0.040401667 0.0235129
0.46367157 0.039259762 0.023229003
0.46380332 0.03811688 0.022944868
0.4639352 0.036973007 0.022660494
0.46406716 0.035828151 0.022375762
0.46419924 0.034682304 0.022090912
0.45697904 0.0128878 0.039162099
0.45721224 0.01177218 0.038643003
0.45742375 0.010652643 0.038174212
0.45765781 0.0095335171 0.037653148
0.46505305 0.0066957083 0.020615101
0.46493965 0.0055156779 0.020898044
0.46483958 0.0043375958 0.021150291
0.4647395 0.0031604078 0.021402359
0.46463954 0.0019841213 0.021654189
0.46453971 0.000808727 0.021905839
0.46455204 -0.00035963394 0.021898091
0.46459013 -0.0015267171 0.021830738
0.46463776 -0.0026935954 0.021741509
0.46468532 -0.0038607912 0.021652222
0.46477282 -0.0050267726 0.021470785
0.46491119 -0.0061916541 0.021171749
0.46505016 -0.0073575731 0.020871222
0.46525091 -0.0085229455 0.020428121
0.4654963 -0.0096889045 0.019881845
0.46574372 -0.01085676 0.0193308
0.46180674 0.044883862 0.024636984
0.4610759 0.043565355 0.026356518
0.4603489 0.042253725 0.028067052
0.46037817 0.041101538 0.028019667
0.46042469 0.039952606 0.027932227
0.46047121 0.038803369 0.027844787
0.46051776 0.037653834 0.027757227
0.46056437 0.036503993 0.027669609
0.46061093 0.035353832 0.027582109
0.46065754 0.034203373 0.027494431
0.46070415 0.033052601 0.027406871
0.46075073 0.031901516 0.027319193
0.46079737 0.030750131 0.027231574
0.46084401 0.029598435 0.027143836
0.46089065 0.028446438 0.027056158
0.46096733 0.027298732 0.026898623
0.46109703 0.026158387 0.026618004
0.46122688 0.02501707 0.026336968
0.46135682 0.023874773 0.026055872
0.45765394 0.015332548 0.034801364
0.45522708 0.01392445 0.040458202
0.45472148 0.012736464 0.041652679
0.4548386 0.011614997 0.041400909
0.45497495 0.010494484 0.041104555
0.45511132 0.009372931 0.040808022
0.45524788 0.008250339 0.040511191
0.45538452 0.0071267113 0.040214062
0.45552135 0.0060020424 0.039916694
0.45565826 0.0048763305 0.039619029
0.45579529 0.0037495736 0.039321065
0.45593247 0.0026217718 0.039022863
0.4560698 0.0014929269 0.038724303
0.45620722 0.00036302954 0.038425565
0.45634484 -0.00076791178 0.038126409
0.45654833 -0.0018965667 0.037674248
0.45681322 -0.0030239569 0.037079692
0.4570812 -0.0041533159 0.036477864
0.45734966 -0.0052847844 0.035875082
0.45761865 -0.006418366 0.035271049
0.4638322 -0.0073742606 0.020868719
0.46404076 -0.008538086 0.020405531
0.46428651 -0.0097027272 0.019855976
0.46066958 0.047149792 0.024427891
0.45979422 0.045793884 0.026492238
0.4590444 0.044472352 0.02826339
0.45829862 0.043157943 0.030025184
0.45755684 0.041850597 0.031777442
0.45757717 0.040704496 0.031750381
0.45765662 0.039570078 0.031585574
0.45773607 0.038435064 0.031420708
0.45781559 0.037299484 0.031255782
0.45789513 0.03616333 0.031090796
0.45797473 0.035026602 0.030925572
0.45805436 0.033889294 0.030760348
0.45813406 0.032751404 0.030595124
0.45821375 0.031612955 0.030429661
0.4582935 0.030473908 0.030264199
0.45837331 0.029334294 0.030098617
0.45845315 0.028194098 0.029933035
0.45853299 0.027053321 0.029767275
0.45861292 0.025911966 0.029601514
0.45869291 0.024770034 0.029435575
0.4587729 0.023627518 0.029269636
0.4591651 0.022527317 0.028375328
0.45563006 0.015196186 0.03674531
0.45355591 0.013830354 0.041603684
0.45352185 0.00816801 0.041784465
0.45362121 0.0070448238 0.041573048
0.45372123 0.0059209485 0.04136008
0.45382535 0.0047966298 0.041137516
0.45392954 0.0036715288 0.040914834
0.45403385 0.0025456455 0.040692031
0.45413816 0.0014189798 0.040468991
0.45425683 0.00029237382 0.040212691
0.45439225 -0.00083421357 0.039917171
0.4545278 -0.0019618385 0.039621472
0.45466349 -0.0030905027 0.039325535
0.45479929 -0.0042202082 0.039029241
0.45493522 -0.0053509539 0.038732708
0.4550713 -0.0064827409 0.038435876
0.45520747 -0.0076155737 0.038138747
0.45534354 -0.0087494599 0.037841976
0.45547959 -0.0098843938 0.037545204
0.45561582 -0.011020373 0.037248135
0.45575213 -0.012157399 0.036950827
0.45588857 -0.013295474 0.036653221
0.45602512 -0.014434598 0.036355317
0.45616186 -0.015574776 0.036057115
0.45629865 -0.016716005 0.035758734
0.45643559 -0.017858289 0.035459995
0.45668831 -0.019002881 0.034891546
0.45702446 -0.020150727 0.034128606
0.45746088 -0.021303177 0.033132076
0.45789874 -0.022459175 0.032132447
0.45851654 0.046858296 0.026647151
0.45745662 0.045466326 0.029152989
0.45671698 0.044152528 0.030907929
0.45598125 0.042845763 0.032653391
0.45573124 0.041646279 0.033260167
0.45574 0.040501751 0.033260226
0.45579693 0.039366841 0.033147395
