# .PCD v0.7 - Point Cloud Data file format
VERSION 0.7
FIELDS x y z
SIZE 4 4 4
TYPE F F F
COUNT 1 1 1
WIDTH 1394
HEIGHT 1
VIEWPOINT 0 0 0 1 0 0 0
POINTS 1394
DATA ascii
0.69915289 -0.58865625 -0.79619765
0.69917196 -0.5911364 -0.79619765
0.69919103 -0.59361655 -0.79619765
0.69921011 -0.59609663 -0.79619765
0.69922912 -0.59857672 -0.79619765
0.69924819 -0.60105687 -0.79619765
0.69926727 -0.60353702 -0.79619765
0.69928634 -0.60601711 -0.79619765
0.69930542 -0.60849726 -0.79619765
0.69932449 -0.61097735 -0.79619765
0.6993435 -0.6134575 -0.79619765
0.69936258 -0.61593759 -0.79619765
0.69938165 -0.61841774 -0.79619765
0.69940072 -0.62089783 -0.79619765
0.69941992 -0.62337804 -0.79619765
0.69943893 -0.62585819 -0.79619765
0.699458 -0.62833828 -0.79619765
0.69947708 -0.63081837 -0.79619765
0.69949615 -0.63329852 -0.79619765
0.69951522 -0.63577867 -0.79619765
0.68618429 0.77949333 -0.7961967
0.6862033 0.77701592 -0.7961967
0.68622237 0.77453852 -0.7961967
0.68624145 0.77206105 -0.7961967
0.68626052 0.76958358 -0.7961967
0.68627954 0.76710624 -0.7961967
0.68629855 0.76462877 -0.7961967
0.68631762 0.7621513 -0.7961967
0.6863367 0.75967389 -0.7961967
0.68635571 0.75719643 -0.7961967
0.68637478 0.75471902 -0.7961967
0.6863938 0.75224161 -0.7961967
0.68641299 0.7497642 -0.7961967
0.68643206 0.74728674 -0.7961967
0.68645108 0.74480939 -0.7961967
0.68647009 0.74233192 -0.7961967
0.68648916 0.73985445 -0.7961967
0.68650824 0.73737699 -0.7961967
0.68652725 0.73489964 -0.7961967
0.68654633 0.73242217 -0.7961967
0.68656534 0.72994471 -0.7961967
0.68658441 0.7274673 -0.7961967
0.68660349 0.72498983 -0.7961967
0.6866225 0.72251242 -0.7961967
0.68664151 0.72003502 -0.7961967
0.68666059 0.71755755 -0.7961967
0.68667966 0.71508008 -0.7961967
0.68669873 0.71260273 -0.7961967
0.68671775 0.71012527 -0.7961967
0.68673676 0.7076478 -0.7961967
0.68675584 0.70517039 -0.7961967
0.68677491 0.70269293 -0.7961967
0.68679392 0.70021552 -0.7961967
0.68681294 0.69773817 -0.79619682
0.68683201 0.6952607 -0.79619682
0.68685108 0.69278324 -0.79619682
0.68687016 0.69030583 -0.79619682
0.68688917 0.68782842 -0.79619682
0.68690819 0.68535095 -0.79619682
0.68692726 0.68287349 -0.79619682
0.68694633 0.68039614 -0.79619682
0.68696535 0.67791867 -0.79619682
0.68698436 0.67544121 -0.79619682
0.68700343 0.6729638 -0.79619682
0.68702251 0.67048633 -0.79619682
0.68704158 0.66800892 -0.79619682
0.68706059 0.66553152 -0.79619682
0.68707961 0.66305405 -0.79619682
0.68709868 0.66057658 -0.79619682
0.68711776 0.65809923 -0.79619682
0.68713677 0.65562177 -0.79619682
0.68715584 0.6531443 -0.79619682
0.68717486 0.65066689 -0.79619682
0.68719393 0.64818954 -0.79619694
0.687213 0.64571208 -0.79619694
0.68723208 0.64323461 -0.79619694
0.68725109 0.6407572 -0.79619694
0.6872701 0.63827968 -0.79619682
0.68728918 0.63580227 -0.79619682
0.68730819 0.63332486 -0.79619682
0.68732727 0.63084739 -0.79619682
0.68734628 0.62836993 -0.79619682
0.68736535 0.62589258 -0.79619682
0.68738443 0.62341511 -0.79619682
0.68740344 0.62093765 -0.79619682
0.68742245 0.61846024 -0.79619682
0.68744153 0.61598277 -0.79619682
0.6874606 0.61350536 -0.79619682
0.68747967 0.61102796 -0.79619682
0.68749869 0.60855049 -0.79619682
0.6875177 0.60607302 -0.79619682
0.68753678 0.60359567 -0.79619682
0.68755585 0.60111827 -0.79619694
0.68757492 0.5986408 -0.79619694
0.68759394 0.59616333 -0.79619694
0.68761295 0.59368598 -0.79619694
0.68763202 0.59120852 -0.79619694
0.6876511 0.58873105 -0.79619694
0.68767017 0.58625364 -0.79619694
0.68768919 0.58377618 -0.79619694
0.6877082 0.58129877 -0.79619694
0.68772727 0.57882136 -0.79619694
0.68774635 0.57634389 -0.79619694
0.68776536 0.57386643 -0.79619694
0.68778443 0.57138902 -0.79619694
0.68780345 0.56891161 -0.79619694
0.68782252 0.56643414 -0.79619694
0.68784159 0.56395668 -0.79619694
0.68786061 0.56147933 -0.79619694
0.68787962 0.55900186 -0.79619694
0.6878987 0.5565244 -0.79619694
0.68791777 0.55404699 -0.79619694
0.68793684 0.55156952 -0.79619694
0.68795586 0.54909211 -0.79619694
0.68797487 0.54661471 -0.79619694
0.68799394 0.54413724 -0.79619694
0.68801302 0.54165977 -0.79619694
0.68803203 0.53918242 -0.79619706
0.68805104 0.53670502 -0.79619706
0.68807012 0.53422755 -0.79619706
0.68808919 0.53175008 -0.79619706
0.68810827 0.52927268 -0.79619706
0.68812728 0.52679527 -0.79619706
0.68814629 0.5243178 -0.79619706
0.68816537 0.52184033 -0.79619706
0.68818444 0.51936293 -0.79619706
0.68820345 0.51688552 -0.79619706
0.68822247 0.51440805 -0.79619706
0.68824154 0.51193064 -0.79619706
0.68826061 0.50945318 -0.79619706
0.68827969 0.50697577 -0.79619706
0.6882987 0.50449836 -0.79619706
0.68831772 0.5020209 -0.79619706
0.68833679 0.49954343 -0.79619706
0.68835586 0.49706602 -0.79619706
0.68837488 0.49458861 -0.79619706
0.68839389 0.49211115 -0.79619706
0.68841296 0.48963368 -0.79619706
0.68843204 0.48715627 -0.79619706
0.68845111 0.4846788 -0.79619706
0.68847013 0.48220143 -0.79619706
0.68848914 0.47972396 -0.79619706
0.68850833 0.47724658 -0.79619706
0.68852741 0.47476915 -0.79619706
0.68854642 0.47229174 -0.79619706
0.68856549 0.46981427 -0.79619706
0.68858451 0.46733683 -0.79619706
0.68860358 0.4648594 -0.79619706
0.68862265 0.46238196 -0.79619706
0.68864167 0.45990455 -0.79619706
0.68866068 0.45742708 -0.79619706
0.68867975 0.45494968 -0.79619706
0.68869883 0.45247221 -0.79619706
0.6887179 0.4499948 -0.79619706
0.68873692 0.44751737 -0.79619706
0.68875593 0.44503993 -0.79619706
0.688775 0.44256249 -0.79619706
0.68879408 0.44008502 -0.79619706
0.68881309 0.43760762 -0.79619706
0.6888321 0.43513018 -0.79619706
0.68885118 0.43265274 -0.79619706
0.68887025 0.4301753 -0.79619706
0.68888932 0.4276979 -0.79619706
0.68890834 0.42522043 -0.79619706
0.68892735 0.42274302 -0.79619706
0.68894643 0.42026556 -0.79619706
0.6889655 0.41778815 -0.79619706
0.68898457 0.41531074 -0.7961973
0.68900359 0.4128333 -0.7961973
0.68902266 0.41035587 -0.7961973
0.68904167 0.40787843 -0.7961973
0.68906075 0.40540099 -0.7961973
0.68907982 0.40292355 -0.7961973
0.68909883 0.40044612 -0.7961973
0.68911785 0.39796868 -0.7961973
0.68913692 0.39549127 -0.7961973
0.689156 0.39301381 -0.7961973
0.68917501 0.3905364 -0.7961973
0.68919408 0.38805893 -0.7961973
0.6892131 0.38558152 -0.7961973
0.68923217 0.38310409 -0.7961973
0.68925124 0.38062662 -0.7961973
0.68927026 0.37814921 -0.7961973
0.68928927 0.37567174 -0.7961973
0.68930835 0.37319434 -0.7961973
0.68932742 0.3707169 -0.7961973
0.68934649 0.36823946 -0.7961973
0.68936551 0.36576203 -0.7961973
0.68938452 0.36328459 -0.7961973
0.68940359 0.36080715 -0.7961973
0.68942267 0.35832974 -0.7961973
0.68944168 0.35585228 -0.7961973
0.68946069 0.35337487 -0.79619741
0.68947977 0.35089743 -0.79619741
0.68949884 0.34841999 -0.79619741
0.68951792 0.34594259 -0.79619741
0.68953693 0.34346512 -0.79619741
0.68955594 0.34098771 -0.79619741
0.68957502 0.33851025 -0.79619741
0.68959409 0.33603284 -0.79619741
0.6896131 0.3335554 -0.79619741
0.68963212 0.33107796 -0.79619741
0.68965119 0.32860053 -0.79619741
0.68967026 0.32612309 -0.79619741
0.68968934 0.32364565 -0.79619741
0.68970835 0.32116821 -0.79619741
0.68972737 0.31869078 -0.79619741
0.68974644 0.31621334 -0.79619741
0.68976551 0.3137359 -0.79619741
0.68978453 0.31125847 -0.79619741
0.6898036 0.30878106 -0.79619741
0.68982261 0.30630359 -0.79619741
0.68984169 0.30382618 -0.79619741
0.68986076 0.30134872 -0.79619741
0.68987978 0.29887131 -0.79619741
0.68989879 0.29639387 -0.79619741
0.68991786 0.2939164 -0.79619741
0.689937 0.29143903 -0.79619753
0.68995607 0.28896156 -0.79619753
0.68997508 0.28648415 -0.79619753
0.68999416 0.28400669 -0.79619753
0.69001323 0.28152928 -0.79619753
0.69003224 0.27905184 -0.79619753
0.69005126 0.2765744 -0.79619753
0.69007033 0.27409697 -0.79619753
0.6900894 0.27161953 -0.79619753
0.69010848 0.26914209 -0.79619753
0.69012749 0.26666468 -0.79619753
0.69014651 0.26418722 -0.79619753
0.69016558 0.26170978 -0.79619753
0.69018465 0.25923234 -0.79619753
0.69020367 0.2567549 -0.79619753
0.69022268 0.2542775 -0.79619753
0.69024175 0.25180003 -0.79619753
0.69026083 0.24932262 -0.79619753
0.6902799 0.24684516 -0.79619753
0.69029891 0.24436775 -0.79619753
0.69031793 0.24189028 -0.79619753
0.690337 0.23941287 -0.79619753
0.69035608 0.23693544 -0.79619753
0.69037509 0.234458 -0.79619753
0.6903941 0.23198056 -0.79619753
0.69041318 0.22950315 -0.79619765
0.69043225 0.22702572 -0.79619765
0.69045132 0.22454828 -0.79619765
0.69047034 0.22207084 -0.79619765
0.69048935 0.21959341 -0.79619765
0.69050843 0.21711597 -0.79619765
0.6905275 0.21463853 -0.79619765
0.69054651 0.21216109 -0.79619765
0.69056553 0.20968366 -0.79619765
0.6905846 0.20720623 -0.79619765
0.69060367 0.2047288 -0.79619765
0.69062275 0.20225136 -0.79619765
0.69064176 0.19977392 -0.79619765
0.69066077 0.19729649 -0.79619765
0.69067985 0.19481905 -0.79619765
0.69069892 0.19234161 -0.79619765
0.69071794 0.18986417 -0.79619765
0.69073701 0.18738674 -0.79619765
0.69075602 0.1849093 -0.79619765
0.6907751 0.18243186 -0.79619765
0.69079417 0.17995442 -0.79619765
0.69081318 0.177477 -0.79619765
0.6908322 0.17499956 -0.79619765
0.69085127 0.17252213 -0.79619765
0.69087034 0.17004469 -0.79619765
0.69088942 0.16756725 -0.79619765
0.69090849 0.16508983 -0.79619777
0.69092757 0.16261239 -0.79619777
0.69094658 0.16013496 -0.79619777
0.69096559 0.15765752 -0.79619777
0.69098467 0.15518008 -0.79619777
0.69100374 0.15270264 -0.79619777
0.69102275 0.15022521 -0.79619777
0.69104183 0.14774778 -0.79619777
0.69106084 0.14527035 -0.79619777
0.69107991 0.14279291 -0.79619777
0.69109899 0.14031547 -0.79619777
0.691118 0.13783804 -0.79619777
0.69113702 0.1353606 -0.79619777
0.69115609 0.13288315 -0.79619777
0.69117516 0.13040572 -0.79619777
0.69119424 0.12792829 -0.79619777
0.69121325 0.12545085 -0.79619777
0.69123226 0.12297341 -0.79619777
0.69125134 0.12049598 -0.79619777
0.69127041 0.11801854 -0.79619777
0.69128942 0.11554112 -0.79619777
0.69130844 0.11306368 -0.79619777
0.69132751 0.11058623 -0.79619777
0.69134659 0.10810879 -0.79619777
0.69136566 0.10563135 -0.79619777
0.69138473 0.10315393 -0.79619789
0.69140375 0.10067649 -0.79619789
0.69142276 0.098199055 -0.79619789
0.69144183 0.095721617 -0.79619789
0.69146091 0.09324418 -0.79619789
0.69147992 0.090766743 -0.79619789
0.69149899 0.088289313 -0.79619789
0.69151801 0.085811876 -0.79619789
0.69153708 0.083334439 -0.79619789
0.69155616 0.080856994 -0.79619789
0.69157517 0.078379564 -0.79619789
0.69159418 0.075902127 -0.79619789
0.69161326 0.073424689 -0.79619789
0.69163233 0.07094726 -0.79619789
0.69165134 0.068469822 -0.79619789
0.69167042 0.065992378 -0.79619789
0.69168943 0.06351494 -0.79619789
0.69170851 0.061037511 -0.79619789
0.69172758 0.058560073 -0.79619789
0.69174659 0.056082636 -0.79619789
0.69176561 0.053605199 -0.79619789
0.69178468 0.051127762 -0.79619789
0.69180375 0.048650324 -0.79619789
0.69182283 0.046172887 -0.79619789
0.69184184 0.04369545 -0.79619789
0.69186097 0.04121802 -0.79619801
0.69187999 0.038740583 -0.79619801
0.691899 0.036263146 -0.79619801
0.69191808 0.033785708 -0.79619801
0.69193715 0.031308271 -0.79619801
0.69195616 0.028830839 -0.79619801
0.69197524 0.026353398 -0.79619801
0.69199425 0.023875965 -0.79619801
0.69201332 0.021398528 -0.79619801
0.6920324 0.018921087 -0.79619801
0.69205141 0.016443653 -0.79619801
0.69207042 0.013966214 -0.79619801
0.6920895 0.011488777 -0.79619801
0.69210857 0.0090113413 -0.79619801
0.69212765 0.006533904 -0.79619801
0.69214666 0.0040564667 -0.79619801
0.69216567 0.0015790313 -0.79619801
0.69218475 -0.00089840405 -0.79619801
0.69220382 -0.0033758413 -0.79619801
0.69222283 -0.0058532776 -0.79619801
0.69224185 -0.0083307149 -0.79619801
0.69226092 -0.010808151 -0.79619801
0.69227999 -0.013285588 -0.79619801
0.69229907 -0.015763024 -0.79619801
0.69231808 -0.018240461 -0.79619801
0.69233721 -0.020717898 -0.79619813
0.69235629 -0.023195336 -0.79619813
0.6923753 -0.025672771 -0.79619813
0.69239432 -0.028150208 -0.79619813
0.69241339 -0.030627646 -0.79619813
0.69243246 -0.033105083 -0.79619813
0.69245154 -0.03558252 -0.79619813
0.69247055 -0.038059957 -0.79619813
0.69248956 -0.040537395 -0.79619813
0.69250864 -0.043014832 -0.79619813
0.69252771 -0.045492269 -0.79619813
0.69254673 -0.047969706 -0.79619813
0.69256574 -0.050447144 -0.79619813
0.69258481 -0.052924581 -0.79619813
0.69260389 -0.055402018 -0.79619813
0.69262296 -0.057879455 -0.79619813
0.69264197 -0.060356893 -0.79619813
0.69266099 -0.06283433 -0.79619813
0.69268006 -0.06531176 -0.79619813
0.69269913 -0.067789204 -0.79619813
0.69271815 -0.070266642 -0.79619813
0.69273722 -0.072744079 -0.79619813
0.69275624 -0.075221516 -0.79619813
0.69277531 -0.077698953 -0.79619813
0.69279438 -0.080176398 -0.79619813
0.69281346 -0.082653828 -0.79619837
0.69283253 -0.085131265 -0.79619837
0.69285154 -0.087608702 -0.79619837
0.69287056 -0.09008614 -0.79619837
0.69288963 -0.092563577 -0.79619837
0.6929087 -0.095041014 -0.79619837
0.69292778 -0.097518452 -0.79619837
0.69294679 -0.099995889 -0.79619837
0.69296581 -0.10247333 -0.79619837
0.69298488 -0.10495076 -0.79619837
0.69300395 -0.1074282 -0.79619837
0.69302297 -0.10990564 -0.79619837
0.69304204 -0.11238308 -0.79619837
0.69306105 -0.11486051 -0.79619837
0.69308013 -0.11733795 -0.79619837
0.6930992 -0.11981538 -0.79619837
0.69311821 -0.12229282 -0.79619837
0.69313723 -0.12477026 -0.79619837
0.6931563 -0.12724771 -0.79619837
0.69317538 -0.12972514 -0.79619837
0.69319439 -0.13220258 -0.79619837
0.69321346 -0.13468 -0.79619837
0.69323248 -0.13715744 -0.79619837
0.69325155 -0.13963488 -0.79619837
0.69327062 -0.14211231 -0.79619837
0.69328964 -0.14458977 -0.79619849
0.69330865 -0.1470672 -0.79619849
0.69332772 -0.14954463 -0.79619849
0.6933468 -0.15202206 -0.79619849
0.69336587 -0.1544995 -0.79619849
0.69338489 -0.15697694 -0.79619849
0.6934039 -0.15945439 -0.79619849
0.69342297 -0.16193183 -0.79619849
0.69344205 -0.16440926 -0.79619849
0.69346106 -0.1668867 -0.79619849
0.69348007 -0.16936414 -0.79619849
0.69349915 -0.17184158 -0.79619849
0.69351822 -0.17431901 -0.79619849
0.69353729 -0.17679645 -0.79619849
0.69355631 -0.17927389 -0.79619849
0.69357532 -0.18175133 -0.79619849
0.6935944 -0.18422875 -0.79619849
0.69361347 -0.18670619 -0.79619849
0.69363248 -0.18918364 -0.79619849
0.6936515 -0.19166107 -0.79619849
0.69367057 -0.19413851 -0.79619849
0.69368964 -0.19661595 -0.79619849
0.69370872 -0.19909339 -0.79619849
0.69372773 -0.20157082 -0.79619849
0.69374675 -0.20404826 -0.79619849
0.69376582 -0.20652571 -0.79619861
0.69378489 -0.20900315 -0.79619861
0.69380397 -0.21148059 -0.79619861
0.69382304 -0.21395802 -0.79619861
0.69384205 -0.21643546 -0.79619861
0.69386107 -0.21891291 -0.79619861
0.69388014 -0.22139034 -0.79619861
0.69389921 -0.22386777 -0.79619861
0.69391823 -0.22634521 -0.79619861
0.69393724 -0.22882265 -0.79619861
0.69395632 -0.23130009 -0.79619861
0.69397539 -0.23377752 -0.79619861
0.69399446 -0.23625496 -0.79619861
0.69401348 -0.2387324 -0.79619861
0.69403249 -0.24120983 -0.79619861
0.69405156 -0.24368727 -0.79619861
0.69407064 -0.24616471 -0.79619861
0.69408965 -0.24864216 -0.79619861
0.69410866 -0.25111961 -0.79619861
0.69412774 -0.25359705 -0.79619861
0.69414681 -0.25607449 -0.79619861
0.69416589 -0.25855193 -0.79619861
0.6941849 -0.26102936 -0.79619861
0.69420391 -0.2635068 -0.79619861
0.69422299 -0.26598424 -0.79619861
0.69424206 -0.2684617 -0.79619873
0.69426113 -0.27093911 -0.79619873
0.69428021 -0.27341658 -0.79619873
0.69429928 -0.27589399 -0.79619873
0.69431829 -0.27837145 -0.79619873
0.69433731 -0.28084886 -0.79619873
0.69435638 -0.28332633 -0.79619873
0.69437546 -0.28580374 -0.79619873
0.69439447 -0.2882812 -0.79619873
0.69441348 -0.29075864 -0.79619873
0.69443256 -0.29323608 -0.79619873
0.69445163 -0.29571351 -0.79619873
0.6944707 -0.29819095 -0.79619873
0.69448972 -0.30066839 -0.79619873
0.69450873 -0.30314583 -0.79619873
0.6945278 -0.30562326 -0.79619873
0.69454688 -0.3081007 -0.79619873
0.69456589 -0.31057814 -0.79619873
0.69458497 -0.31305555 -0.79619873
0.69460398 -0.31553301 -0.79619873
0.69462305 -0.31801042 -0.79619873
0.69464213 -0.32048789 -0.79619873
0.69466114 -0.32296532 -0.79619873
0.69468015 -0.32544276 -0.79619873
0.69469923 -0.3279202 -0.79619873
0.6947183 -0.33039767 -0.79619884
0.69473737 -0.3328751 -0.79619884
0.69475645 -0.33535254 -0.79619884
0.69477552 -0.33782998 -0.79619884
0.69479454 -0.34030741 -0.79619884
0.69481355 -0.34278485 -0.79619884
0.69483262 -0.34526229 -0.79619884
0.6948517 -0.34773973 -0.79619884
0.69487071 -0.35021719 -0.79619884
0.69488978 -0.3526946 -0.79619884
0.6949088 -0.35517207 -0.79619884
0.69492787 -0.35764948 -0.79619884
0.69494694 -0.36012691 -0.79619884
0.69496596 -0.36260435 -0.79619884
0.69498497 -0.36508179 -0.79619884
0.69500405 -0.36755922 -0.79619884
0.69502312 -0.37003666 -0.79619884
0.69504219 -0.3725141 -0.79619884
0.69506121 -0.37499154 -0.79619884
0.69508022 -0.37746897 -0.79619884
0.69509929 -0.37994641 -0.79619884
0.69511837 -0.38242388 -0.79619884
0.69513738 -0.38490129 -0.79619884
0.6951564 -0.38737875 -0.79619884
0.69517547 -0.38985616 -0.79619884
0.69519454 -0.39233366 -0.79619896
0.69521362 -0.39481106 -0.79619896
0.69523269 -0.39728853 -0.79619896
0.6952517 -0.39976594 -0.79619896
0.69527072 -0.40224341 -0.79619896
0.69528979 -0.40472081 -0.79619896
0.69530886 -0.40719828 -0.79619896
0.69532788 -0.40967572 -0.79619896
0.69534689 -0.41215315 -0.79619896
0.69536597 -0.41463059 -0.79619896
0.69538504 -0.41710803 -0.79619896
0.69540411 -0.41958547 -0.79619896
0.69542313 -0.4220629 -0.79619896
0.69544214 -0.42454034 -0.79619896
0.69546121 -0.42701778 -0.79619896
0.69548029 -0.42949522 -0.79619896
0.6954993 -0.43197265 -0.79619896
0.69551837 -0.43445009 -0.79619896
0.69553739 -0.43692756 -0.79619896
0.69555646 -0.43940496 -0.79619896
0.69557554 -0.44188243 -0.79619896
0.69559455 -0.44435984 -0.79619896
0.69561356 -0.44683731 -0.79619896
0.69563264 -0.44931471 -0.79619896
0.69565171 -0.45179218 -0.79619896
0.69567078 -0.45426962 -0.79619908
0.6956898 -0.45674708 -0.79619908
0.69570881 -0.45922449 -0.79619908
0.69572788 -0.46170196 -0.79619908
0.69574696 -0.46417937 -0.79619908
0.69576597 -0.46665683 -0.79619908
0.69578499 -0.46913427 -0.79619908
0.69580406 -0.47161171 -0.79619908
0.69582313 -0.47408915 -0.79619908
0.69584221 -0.47656658 -0.79619908
0.69586122 -0.47904402 -0.79619908
0.69588023 -0.48152146 -0.79619908
0.69589931 -0.48399889 -0.79619908
0.69591838 -0.48647633 -0.79619908
0.6959374 -0.48895377 -0.79619908
0.69595641 -0.49143121 -0.79619908
0.69597548 -0.49390864 -0.79619908
0.69599456 -0.49638611 -0.79619908
0.69601363 -0.49886352 -0.79619908
0.69603264 -0.50134099 -0.79619908
0.69605166 -0.50381839 -0.79619908
0.69607073 -0.50629586 -0.79619908
0.6960898 -0.50877327 -0.79619908
0.69610882 -0.51125073 -0.79619908
0.69612789 -0.51372814 -0.79619908
0.69614702 -0.51620567 -0.7961992
0.6961661 -0.51868308 -0.7961992
0.69618511 -0.52116048 -0.7961992
0.69620413 -0.52363795 -0.7961992
0.6962232 -0.52611542 -0.7961992
0.69624227 -0.52859282 -0.7961992
0.69626129 -0.53107029 -0.7961992
0.69628036 -0.5335477 -0.7961992
0.69629937 -0.53602517 -0.7961992
0.69631845 -0.53850257 -0.7961992
0.69633752 -0.54098004 -0.7961992
0.69635653 -0.54345745 -0.7961992
0.69637555 -0.54593492 -0.7961992
0.69639462 -0.54841232 -0.7961992
0.6964137 -0.55088979 -0.7961992
0.69643277 -0.5533672 -0.7961992
0.69645178 -0.55584466 -0.7961992
0.6964708 -0.55832207 -0.7961992
0.69648987 -0.56079954 -0.7961992
0.69650894 -0.56327701 -0.7961992
0.69652796 -0.56575441 -0.7961992
0.69654697 -0.56823182 -0.7961992
0.69656605 -0.57070929 -0.7961992
0.69658512 -0.57318676 -0.7961992
0.69660419 -0.57566416 -0.7961992
0.69662327 -0.57814163 -0.79619932
0.69664234 -0.5806191 -0.79619932
0.69666135 -0.58309656 -0.79619932
0.69668037 -0.58557397 -0.79619932
0.69669944 -0.58805138 -0.79619932
0.69671851 -0.59052885 -0.79619932
0.69673759 -0.59300631 -0.79619932
0.6967566 -0.59548372 -0.79619932
0.69677562 -0.59796113 -0.79619932
0.69679469 -0.60043859 -0.79619932
0.69681376 -0.60291606 -0.79619932
0.69683278 -0.60539347 -0.79619932
0.69685179 -0.60787088 -0.79619932
0.69687086 -0.61034834 -0.79619932
0.69688994 -0.61282581 -0.79619932
0.69690901 -0.61530322 -0.79619932
0.69692802 -0.61778069 -0.79619932
0.69694704 -0.62025809 -0.79619932
0.69696611 -0.62273556 -0.79619932
0.69698519 -0.62521303 -0.79619932
0.6970042 -0.62769043 -0.79619932
0.69702321 -0.63016784 -0.79619932
0.69704229 -0.63264531 -0.79619932
0.69706136 -0.63512278 -0.79619932
0.69708043 -0.63760018 -0.79619932
0.69709945 -0.64007765 -0.79619944
0.69711846 -0.64255512 -0.79619944
0.69713753 -0.64503253 -0.79619944
0.69715661 -0.64750999 -0.79619944
0.69717562 -0.64998746 -0.79619944
0.6971947 -0.65246487 -0.79619944
0.69721371 -0.65494227 -0.79619944
0.69723278 -0.65741974 -0.79619944
0.69725186 -0.65989721 -0.79619944
0.69727087 -0.66237462 -0.79619944
0.69728988 -0.66485202 -0.79619944
0.69730896 -0.66732949 -0.79619944
0.69732803 -0.66980696 -0.79619944
0.6973471 -0.67228442 -0.79619944
0.69736612 -0.67476183 -0.79619944
0.69738513 -0.67723924 -0.79619944
0.69740421 -0.67971671 -0.79619944
0.69742328 -0.68219417 -0.79619944
0.69744229 -0.68467158 -0.79619944
0.69746131 -0.68714899 -0.79619944
0.69748038 -0.68962646 -0.79619944
0.69749945 -0.69210392 -0.79619944
0.69751853 -0.69458133 -0.79619944
0.69753754 -0.69705874 -0.79619944
0.69755656 -0.6995362 -0.79619944
0.69757575 -0.70201373 -0.79619956
0.69759476 -0.7044912 -0.79619956
0.69761378 -0.70696855 -0.79619956
0.69763285 -0.70944601 -0.79619956
0.69765192 -0.71192348 -0.79619956
0.697671 -0.71440095 -0.79619956
0.69769001 -0.71687829 -0.79619956
0.69770902 -0.71935576 -0.79619956
0.6977281 -0.72183323 -0.79619956
0.69774717 -0.7243107 -0.79619956
0.69776618 -0.72678804 -0.79619956
0.6977852 -0.72926551 -0.79619956
0.69780427 -0.73174298 -0.79619956
0.69782335 -0.73422045 -0.79619956
0.69784242 -0.73669785 -0.79619956
0.69786143 -0.73917526 -0.79619956
0.69788045 -0.74165273 -0.79619956
0.69789952 -0.74413019 -0.79619956
0.69791859 -0.74660766 -0.79619956
0.69793761 -0.74908501 -0.79619956
0.69795668 -0.75156248 -0.79619956
0.6979757 -0.75403994 -0.79619956
0.69799477 -0.75651741 -0.79619956
0.69801384 -0.75899482 -0.79619956
0.69803286 -0.76147223 -0.79619956
0.69805187 -0.76394975 -0.79619968
0.69807094 -0.76642722 -0.79619968
0.69809002 -0.76890463 -0.79619968
0.69810909 -0.77138203 -0.79619968
0.6981281 -0.7738595 -0.79619968
0.69814712 -0.77633697 -0.79619968
0.69816619 -0.77881438 -0.79619968
0.69818527 -0.78129178 -0.79619968
0.69820428 -0.78376925 -0.79619968
0.69822329 -0.78624672 -0.79619968
0.69824237 -0.78872418 -0.79619968
0.69826144 -0.79120159 -0.79619968
0.69828051 -0.793679 -0.79619968
0.69829953 -0.79615647 -0.79619968
0.69831854 -0.79863393 -0.79619968
0.69833761 -0.80111134 -0.79619968
0.69835669 -0.80358875 -0.79619968
0.68374747 0.77861929 -0.79619825
0.68376654 0.77614456 -0.79619825
0.68378556 0.77366978 -0.79619825
0.68380457 0.77119499 -0.79619825
0.68382365 0.76872027 -0.79619825
0.6838426 0.76624554 -0.79619825
0.68386167 0.76377076 -0.79619825
0.68388069 0.76129597 -0.79619825
0.6838997 0.75882125 -0.79619825
0.68391877 0.75634646 -0.79619825
0.68393773 0.75387174 -0.79619825
0.6839568 0.75139695 -0.79619825
0.68397582 0.74892223 -0.79619825
0.68399483 0.74644744 -0.79619825
0.6840139 0.74397272 -0.79619825
0.68403286 0.74149793 -0.79619825
0.68405193 0.73902315 -0.79619825
0.68407094 0.73654842 -0.79619825
0.68408996 0.73407376 -0.79619837
0.68410903 0.73159897 -0.79619837
0.68412805 0.72912419 -0.79619837
0.68414706 0.72664946 -0.79619837
0.68416607 0.72417474 -0.79619837
0.68418509 0.72169995 -0.79619837
0.68420416 0.71922517 -0.79619837
0.68422318 0.71675038 -0.79619837
0.68424219 0.71427566 -0.79619837
0.68426126 0.71180093 -0.79619837
0.68428022 0.70932615 -0.79619837
0.68429929 0.70685136 -0.79619837
0.6843183 0.70437664 -0.79619837
0.68433732 0.70190191 -0.79619837
0.68435639 0.69942713 -0.79619837
0.68437535 0.69695234 -0.79619837
0.68439442 0.69447762 -0.79619837
0.68441343 0.69200289 -0.79619837
0.68443245 0.68952811 -0.79619837
0.68445152 0.68705332 -0.79619837
0.68447047 0.68457854 -0.79619837
0.68448967 0.68210387 -0.79619849
0.68450868 0.67962915 -0.79619849
0.6845277 0.67715436 -0.79619849
0.68454677 0.67467958 -0.79619849
0.68456572 0.67220485 -0.79619849
0.6845848 0.66973013 -0.79619849
0.68460381 0.66725534 -0.79619849
0.68462282 0.66478056 -0.79619849
0.6846419 0.66230583 -0.79619849
0.68466091 0.65983111 -0.79619849
0.68467993 0.65735632 -0.79619849
0.68469894 0.65488154 -0.79619849
0.68471795 0.65240675 -0.79619849
0.68473703 0.64993203 -0.79619849
0.68475604 0.6474573 -0.79619849
0.68477505 0.64498252 -0.79619849
0.68479413 0.64250773 -0.79619849
0.68481308 0.64003301 -0.79619849
0.68483216 0.63755828 -0.79619849
0.68485117 0.6350835 -0.79619849
0.68487018 0.63260871 -0.79619849
0.68488926 0.63013393 -0.79619849
0.68490821 0.6276592 -0.79619849
0.68492728 0.62518448 -0.79619849
0.6849463 0.62270969 -0.79619849
0.68496531 0.62023491 -0.79619849
0.68498439 0.61776018 -0.79619849
0.68500334 0.61528546 -0.79619849
0.68502241 0.61281067 -0.79619849
0.68504143 0.61033589 -0.79619849
0.68506044 0.60786116 -0.79619849
0.68507951 0.60538644 -0.79619849
0.68509853 0.60291165 -0.79619849
0.68511754 0.60043687 -0.79619849
0.68513656 0.59796208 -0.79619849
0.68515557 0.59548736 -0.79619849
0.68517464 0.59301263 -0.79619849
0.68519366 0.59053785 -0.79619849
0.68521267 0.58806306 -0.79619849
0.68523175 0.58558834 -0.79619849
0.68525076 0.58311361 -0.79619861
0.68526977 0.58063889 -0.79619861
0.68528885 0.5781641 -0.79619861
0.6853078 0.57568932 -0.79619861
0.68532687 0.57321459 -0.79619861
0.68534589 0.57073987 -0.79619861
0.6853649 0.56826508 -0.79619861
0.68538398 0.5657903 -0.79619861
0.68540293 0.56331557 -0.79619861
0.685422 0.56084079 -0.79619861
0.68544102 0.55836606 -0.79619861
0.68546003 0.55589128 -0.79619861
0.6854791 0.55341655 -0.79619861
0.68549812 0.55094177 -0.79619861
0.68551713 0.54846704 -0.79619861
0.68553621 0.54599226 -0.79619861
0.68555516 0.54351747 -0.79619861
0.68557423 0.54104275 -0.79619861
0.68559325 0.53856796 -0.79619861
0.68561226 0.53609324 -0.79619861
0.68563133 0.53361845 -0.79619861
0.68565029 0.53114372 -0.79619861
0.68566936 0.52866894 -0.79619861
0.68568838 0.52619421 -0.79619861
0.68570739 0.52371943 -0.79619861
0.68572646 0.52124465 -0.79619861
0.68574554 0.51877004 -0.79619884
0.68576461 0.51629525 -0.79619884
0.68578357 0.51382047 -0.79619884
0.68580264 0.51134568 -0.79619884
0.68582165 0.50887102 -0.79619884
0.68584067 0.50639623 -0.79619884
0.68585974 0.50392145 -0.79619884
0.68587869 0.50144666 -0.79619884
0.68589777 0.49897194 -0.79619884
0.68591678 0.49649721 -0.79619884
0.6859358 0.49402243 -0.79619884
0.68595487 0.49154764 -0.79619884
0.68597382 0.48907286 -0.79619884
0.6859929 0.48659813 -0.79619884
0.68601191 0.48412341 -0.79619884
0.68603092 0.48164862 -0.79619884
0.68605 0.47917387 -0.79619884
0.68606901 0.47669911 -0.79619884
0.68608803 0.47422436 -0.79619884
0.68610704 0.4717496 -0.79619884
0.68612605 0.46927482 -0.79619884
0.68614513 0.46680009 -0.79619884
0.68616414 0.46432531 -0.79619884
0.68618315 0.46185055 -0.79619884
0.68620223 0.4593758 -0.79619884
0.6862213 0.4569011 -0.79619896
0.68624026 0.45442632 -0.79619896
0.68625933 0.45195156 -0.79619896
0.68627834 0.44947681 -0.79619896
0.68629736 0.44700205 -0.79619896
0.68631643 0.4445273 -0.79619896
0.68633544 0.44205254 -0.79619896
0.68635446 0.43957779 -0.79619896
0.68637353 0.437103 -0.79619896
0.68639249 0.43462825 -0.79619896
0.68641156 0.43215349 -0.79619896
0.68643057 0.42967874 -0.79619896
0.68644959 0.42720398 -0.79619896
0.68646866 0.42472923 -0.79619896
0.68648762 0.42225447 -0.79619896
0.68650669 0.41977972 -0.79619896
0.6865257 0.41730493 -0.79619896
0.68654472 0.41483021 -0.79619896
0.68656379 0.41235542 -0.79619896
0.68658274 0.40988067 -0.79619896
0.68660182 0.40740591 -0.79619896
0.68662083 0.40493116 -0.79619896
0.68663985 0.4024564 -0.79619896
0.68665892 0.39998162 -0.79619896
0.68667787 0.39750689 -0.79619896
0.68669695 0.39503214 -0.79619908
0.68671596 0.39255741 -0.79619908
0.68673497 0.39008263 -0.79619908
0.68675405 0.3876079 -0.79619908
0.68677306 0.38513312 -0.79619908
0.68679208 0.38265836 -0.79619908
0.68681109 0.38018361 -0.79619908
0.6868301 0.37770882 -0.79619908
0.68684918 0.3752341 -0.79619908
0.68686819 0.37275931 -0.79619908
0.6868872 0.37028459 -0.79619908
0.68690628 0.3678098 -0.79619908
0.68692523 0.36533508 -0.79619908
0.68694431 0.36286029 -0.79619908
0.68696332 0.36038554 -0.79619908
0.68698233 0.35791078 -0.79619908
0.68700141 0.355436 -0.79619908
0.68702036 0.35296127 -0.79619908
0.68703943 0.35048649 -0.79619908
0.68705845 0.34801173 -0.79619908
0.68707746 0.34553698 -0.79619908
0.68709654 0.34306222 -0.79619908
0.68711549 0.34058747 -0.79619908
0.68713456 0.33811271 -0.79619908
0.68715358 0.33563796 -0.79619908
0.68717265 0.33316323 -0.7961992
0.68719167 0.33068845 -0.7961992
0.68721074 0.32821369 -0.7961992
0.68722969 0.32573894 -0.7961992
0.68724877 0.32326418 -0.7961992
0.68726778 0.32078943 -0.7961992
0.68728679 0.31831464 -0.7961992
0.68730587 0.31583992 -0.7961992
0.68732482 0.31336513 -0.7961992
0.6873439 0.31089041 -0.7961992
0.68736291 0.30841562 -0.7961992
0.68738192 0.3059409 -0.7961992
0.687401 0.30346611 -0.7961992
0.68741995 0.30099133 -0.7961992
0.68743902 0.2985166 -0.7961992
0.68745804 0.29604182 -0.7961992
0.68747705 0.29356709 -0.7961992
0.68749613 0.29109231 -0.7961992
0.68751508 0.28861755 -0.7961992
0.68753415 0.2861428 -0.7961992
0.68755317 0.28366804 -0.7961992
0.68757218 0.28119329 -0.7961992
0.68759125 0.27871853 -0.7961992
0.68761027 0.27624378 -0.7961992
0.68762928 0.27376899 -0.7961992
0.68764836 0.27129427 -0.79619932
0.68766743 0.26881951 -0.79619932
0.68768638 0.26634476 -0.79619932
0.68770546 0.26386997 -0.79619932
0.68772447 0.26139525 -0.79619932
0.68774348 0.25892046 -0.79619932
0.68776256 0.25644574 -0.79619932
0.68778151 0.25397095 -0.79619932
0.68780059 0.2514962 -0.79619932
0.6878196 0.24902144 -0.79619932
0.68783861 0.24654666 -0.79619932
0.68785769 0.24407193 -0.79619932
0.6878767 0.24159715 -0.79619932
0.68789572 0.23912239 -0.79619932
0.68791479 0.23664764 -0.79619932
0.68793374 0.23417288 -0.79619932
0.68795282 0.2316981 -0.79619932
0.68797183 0.22922334 -0.79619932
0.68799084 0.22674859 -0.79619932
0.68800992 0.22427383 -0.79619932
0.68802887 0.22179908 -0.79619932
0.68804795 0.21932432 -0.79619932
0.68806696 0.21684957 -0.79619932
0.68808597 0.21437481 -0.79619932
0.68810505 0.21190006 -0.79619932
0.68812406 0.20942532 -0.79619956
0.68814307 0.20695055 -0.79619956
0.68816215 0.20447579 -0.79619956
0.68818116 0.20200102 -0.79619956
0.68820018 0.19952627 -0.79619956
0.68821919 0.19705151 -0.79619956
0.6882382 0.19457676 -0.79619956
0.68825728 0.192102 -0.79619956
0.68827629 0.18962723 -0.79619956
0.6882953 0.18715248 -0.79619956
0.68831438 0.18467772 -0.79619956
0.68833333 0.18220297 -0.79619956
0.68835241 0.1797282 -0.79619956
0.68837142 0.17725343 -0.79619956
0.68839043 0.17477867 -0.79619956
0.68840951 0.17230392 -0.79619956
0.68842846 0.16982916 -0.79619956
0.68844754 0.1673544 -0.79619956
0.68846655 0.16487963 -0.79619956
0.68848556 0.16240488 -0.79619956
0.68850464 0.15993012 -0.79619956
0.68852359 0.15745537 -0.79619956
0.68854266 0.15498061 -0.79619956
0.68856168 0.15250583 -0.79619956
0.68858069 0.15003107 -0.79619956
0.68859977 0.14755633 -0.79619956
0.68861884 0.14508158 -0.79619956
0.68863785 0.14260682 -0.79619956
0.68865687 0.14013205 -0.79619956
0.68867594 0.1376573 -0.79619956
0.68869489 0.13518254 -0.79619956
0.68871397 0.13270779 -0.79619956
0.68873298 0.13023303 -0.79619956
0.688752 0.12775826 -0.79619956
0.68877107 0.12528349 -0.79619956
0.68879002 0.12280874 -0.79619956
0.6888091 0.12033398 -0.79619956
0.68882811 0.11785921 -0.79619956
0.68884712 0.11538446 -0.79619956
0.6888662 0.1129097 -0.79619956
0.68888521 0.11043495 -0.79619956
0.68890423 0.10796018 -0.79619956
0.68892324 0.10548542 -0.79619956
0.68894225 0.10301065 -0.79619956
0.68896133 0.1005359 -0.79619956
0.68898034 0.098061144 -0.79619956
0.68899935 0.095586382 -0.79619956
0.68901843 0.093111627 -0.79619956
0.68903738 0.090636857 -0.79619956
0.68905646 0.088162102 -0.79619956
0.68907553 0.085687354 -0.7961998
0.68909454 0.083212592 -0.7961998
0.68911356 0.080737837 -0.7961998
0.68913263 0.078263074 -0.7961998
0.68915164 0.075788312 -0.7961998
0.68917066 0.073313549 -0.7961998
0.68918973 0.070838794 -0.7961998
0.68920869 0.068364032 -0.7961998
0.68922776 0.065889277 -0.7961998
0.68924677 0.063414514 -0.7961998
0.68926579 0.060939752 -0.7961998
0.68928486 0.058464997 -0.7961998
0.68930382 0.055990234 -0.7961998
0.68932289 0.053515479 -0.7961998
0.6893419 0.051040716 -0.7961998
0.68936092 0.048565961 -0.7961998
0.68937999 0.046091191 -0.7961998
0.68939894 0.043616436 -0.7961998
0.68941802 0.041141674 -0.7961998
0.68943703 0.038666911 -0.7961998
0.68945605 0.036192156 -0.7961998
0.68947512 0.033717394 -0.7961998
0.68949407 0.031242637 -0.7961998
0.68951315 0.028767878 -0.7961998
0.68953216 0.026293119 -0.7961998
0.68955123 0.023818364 -0.7961998
0.68957025 0.021343606 -0.7961998
0.68958932 0.018868847 -0.7961998
0.68960828 0.016394084 -0.7961998
0.68962735 0.013919326 -0.7961998
0.68964636 0.011444565 -0.7961998
0.68966538 0.0089698043 -0.7961998
0.68968445 0.0064950436 -0.7961998
0.6897034 0.0040202849 -0.7961998
0.68972248 0.0015455242 -0.7961998
0.68974149 -0.00092923641 -0.7961998
0.68976051 -0.0034039952 -0.7961998
0.68977958 -0.0058787549 -0.7961998
0.68979853 -0.0083535146 -0.7961998
0.68981761 -0.010828275 -0.7961998
0.68983662 -0.013303035 -0.7961998
0.68985564 -0.015777795 -0.7961998
0.68987471 -0.018252555 -0.7961998
0.68989372 -0.020727314 -0.7961998
0.68991274 -0.023202075 -0.7961998
0.68993175 -0.025676835 -0.7961998
0.68995076 -0.028151594 -0.7961998
0.68996984 -0.030626353 -0.7961998
0.68998885 -0.033101112 -0.7961998
0.69000787 -0.035575874 -0.7961998
0.69002694 -0.038050637 -0.79619992
0.69004589 -0.040525392 -0.79619992
0.69006497 -0.043000154 -0.79619992
0.69008398 -0.045474917 -0.79619992
0.69010299 -0.047949672 -0.79619992
0.69012207 -0.050424434 -0.79619992
0.69014102 -0.052899197 -0.79619992
0.6901601 -0.055373952 -0.79619992
0.69017911 -0.057848714 -0.79619992
0.69019812 -0.060323477 -0.79619992
0.6902172 -0.062798232 -0.79619992
0.69023615 -0.065272994 -0.79619992
0.69025522 -0.067747757 -0.79619992
0.69027424 -0.070222512 -0.79619992
0.69029325 -0.072697274 -0.79619992
0.69031233 -0.075172044 -0.79619992
0.69033128 -0.077646799 -0.79619992
0.69035035 -0.080121562 -0.79619992
0.69036937 -0.082596317 -0.79619992
0.69038838 -0.085071079 -0.79619992
0.69040745 -0.087545834 -0.79619992
0.69042647 -0.090020604 -0.79619992
0.69044548 -0.092495359 -0.79619992
0.69046456 -0.094970122 -0.79619992
0.69048351 -0.097444877 -0.79619992
0.6905027 -0.099919647 -0.79620004
0.69052172 -0.10239441 -0.79620004
0.69054073 -0.10486917 -0.79620004
0.6905598 -0.10734393 -0.79620004
0.69057876 -0.10981869 -0.79620004
0.69059783 -0.11229344 -0.79620004
0.69061685 -0.11476821 -0.79620004
0.69063586 -0.11724297 -0.79620004
0.69065493 -0.11971773 -0.79620004
0.69067389 -0.12219249 -0.79620004
0.69069296 -0.12466725 -0.79620004
0.69071198 -0.12714201 -0.79620004
0.69073099 -0.12961678 -0.79620004
0.69075006 -0.13209154 -0.79620004
0.69076902 -0.13456629 -0.79620004
0.69078809 -0.13704106 -0.79620004
0.6908071 -0.13951582 -0.79620004
0.69082612 -0.14199056 -0.79620004
0.69084519 -0.14446533 -0.79620004
0.69086421 -0.14694008 -0.79620004
0.69088322 -0.14941484 -0.79620004
0.69090223 -0.15188961 -0.79620004
0.69092125 -0.15436438 -0.79620004
0.69094032 -0.15683913 -0.79620004
0.69095933 -0.15931389 -0.79620004
0.69097835 -0.16178866 -0.79620028
0.69099742 -0.16426343 -0.79620028
0.69101638 -0.16673818 -0.79620028
0.69103545 -0.16921294 -0.79620028
0.69105446 -0.17168769 -0.79620028
0.69107348 -0.17416246 -0.79620028
0.69109255 -0.17663722 -0.79620028
0.69111151 -0.17911199 -0.79620028
0.69113058 -0.18158674 -0.79620028
0.69114959 -0.18406151 -0.79620028
0.69116861 -0.18653627 -0.79620028
0.69118768 -0.18901102 -0.79620028
0.69120663 -0.19148579 -0.79620028
0.69122571 -0.19396055 -0.79620028
0.69124472 -0.1964353 -0.79620028
0.69126374 -0.19891006 -0.79620028
0.69128281 -0.20138483 -0.79620028
0.69130182 -0.20385958 -0.79620028
0.69132084 -0.20633435 -0.79620028
0.69133985 -0.20880911 -0.79620028
0.69135886 -0.21128388 -0.79620028
0.69137794 -0.21375863 -0.79620028
0.69139695 -0.21623339 -0.79620028
0.69141597 -0.21870816 -0.79620028
0.69143504 -0.22118291 -0.79620028
0.69145405 -0.22365768 -0.79620028
0.69147307 -0.22613245 -0.79620028
0.69149214 -0.22860721 -0.79620028
0.69151109 -0.23108196 -0.79620028
0.69153017 -0.23355673 -0.79620028
0.69154918 -0.2360315 -0.79620028
0.6915682 -0.23850626 -0.79620028
0.69158727 -0.24098101 -0.79620028
0.69160622 -0.24345578 -0.79620028
0.6916253 -0.24593054 -0.79620028
0.69164431 -0.24840529 -0.79620028
0.69166332 -0.25088006 -0.79620028
0.6916824 -0.25335482 -0.79620028
0.69170141 -0.25582957 -0.79620028
0.69172043 -0.25830433 -0.79620028
0.6917395 -0.26077911 -0.79620028
0.69175845 -0.26325387 -0.79620028
0.69177753 -0.26572862 -0.79620028
0.69179654 -0.26820338 -0.79620028
0.69181556 -0.27067813 -0.79620028
0.69183463 -0.27315292 -0.79620028
0.69185358 -0.27562767 -0.79620028
0.69187266 -0.27810243 -0.79620028
0.69189167 -0.28057718 -0.79620028
0.69191068 -0.28305194 -0.79620028
0.69192976 -0.28552675 -0.79620039
0.69194871 -0.28800148 -0.79620039
0.69196779 -0.29047626 -0.79620039
0.6919868 -0.29295099 -0.79620039
0.69200581 -0.29542577 -0.79620039
0.69202489 -0.29790053 -0.79620039
0.69204384 -0.30037528 -0.79620039
0.69206291 -0.30285007 -0.79620039
0.69208193 -0.30532482 -0.79620039
0.69210094 -0.30779958 -0.79620039
0.69212002 -0.31027433 -0.79620039
0.69213903 -0.31274912 -0.79620039
0.69215804 -0.31522384 -0.79620039
0.69217706 -0.31769863 -0.79620039
0.69219607 -0.32017338 -0.79620039
0.69221514 -0.32264814 -0.79620039
0.69223416 -0.32512289 -0.79620039
0.69225317 -0.32759768 -0.79620039
0.69227225 -0.33007243 -0.79620039
0.6922912 -0.33254719 -0.79620039
0.69231027 -0.33502197 -0.79620039
0.69232929 -0.3374967 -0.79620039
0.6923483 -0.33997148 -0.79620039
0.69236737 -0.34244624 -0.79620039
0.69238633 -0.34492099 -0.79620039
0.69240552 -0.34739578 -0.79620063
0.69242448 -0.34987053 -0.79620063
0.69244355 -0.35234529 -0.79620063
0.69246256 -0.35482007 -0.79620063
0.69248158 -0.35729483 -0.79620063
0.69250065 -0.35976958 -0.79620063
0.69251961 -0.36224437 -0.79620063
0.69253868 -0.36471909 -0.79620063
0.69255769 -0.36719388 -0.79620063
0.69257671 -0.36966863 -0.79620063
0.69259578 -0.37214339 -0.79620063
0.69261473 -0.37461814 -0.79620063
0.69263381 -0.37709293 -0.79620063
0.69265282 -0.37956765 -0.79620063
0.69267184 -0.38204244 -0.79620063
0.69269091 -0.38451722 -0.79620063
0.69270992 -0.38699195 -0.79620063
0.69272894 -0.38946673 -0.79620063
0.69274795 -0.39194149 -0.79620063
0.69276696 -0.39441624 -0.79620063
0.69278604 -0.396891 -0.79620063
0.69280505 -0.39936578 -0.79620063
0.69282407 -0.40184051 -0.79620063
0.69284314 -0.40431529 -0.79620063
0.69286209 -0.40679005 -0.79620063
0.69288123 -0.40926483 -0.79620075
0.69290024 -0.41173962 -0.79620075
0.69291925 -0.41421437 -0.79620075
0.69293827 -0.41668913 -0.79620075
0.69295734 -0.41916388 -0.79620075
0.69297636 -0.42163867 -0.79620075
0.69299537 -0.42411339 -0.79620075
0.69301444 -0.42658818 -0.79620075
0.6930334 -0.42906293 -0.79620075
0.69305247 -0.43153769 -0.79620075
0.69307148 -0.43401244 -0.79620075
0.6930905 -0.43648723 -0.79620075
0.69310957 -0.43896198 -0.79620075
0.69312853 -0.44143674 -0.79620075
0.6931476 -0.44391152 -0.79620075
0.69316661 -0.44638625 -0.79620075
0.69318563 -0.44886103 -0.79620075
0.6932047 -0.45133579 -0.79620075
0.69322366 -0.45381054 -0.79620075
0.69324273 -0.4562853 -0.79620075
0.69326174 -0.45876008 -0.79620075
0.69328076 -0.46123481 -0.79620075
0.69329983 -0.46370959 -0.79620075
0.69331884 -0.46618438 -0.79620075
0.69333786 -0.4686591 -0.79620075
0.69335687 -0.47113389 -0.79620075
0.693376 -0.4736087 -0.79620087
0.69339502 -0.47608349 -0.79620087
0.69341403 -0.47855824 -0.79620087
0.69343311 -0.481033 -0.79620087
0.69345212 -0.48350775 -0.79620087
0.69347113 -0.48598254 -0.79620087
0.69349015 -0.48845726 -0.79620087
0.69350916 -0.49093205 -0.79620087
0.69352823 -0.4934068 -0.79620087
0.69354725 -0.49588156 -0.79620087
0.69356626 -0.49835634 -0.79620087
0.69358534 -0.50083113 -0.79620087
0.69360429 -0.50330585 -0.79620087
0.69362336 -0.50578064 -0.79620087
0.69364238 -0.50825542 -0.79620087
0.69366139 -0.51073015 -0.79620087
0.69368047 -0.51320493 -0.79620087
0.69369942 -0.51567972 -0.79620087
0.69371849 -0.5181545 -0.79620087
0.69373751 -0.52062929 -0.79620087
0.69375652 -0.52310395 -0.79620087
0.69377559 -0.52557874 -0.79620087
0.69379455 -0.52805352 -0.79620087
0.69381362 -0.53052831 -0.79620087
0.69383264 -0.53300309 -0.79620087
0.69385165 -0.53547776 -0.79620111
0.69387072 -0.53795254 -0.79620111
0.69388974 -0.54042733 -0.79620111
0.69390875 -0.54290211 -0.79620111
0.69392776 -0.54537684 -0.79620111
0.69394678 -0.54785156 -0.79620111
0.69396585 -0.55032635 -0.79620111
0.69398487 -0.55280113 -0.79620111
0.69400388 -0.55527592 -0.79620111
0.69402295 -0.55775064 -0.79620111
0.69404191 -0.56022543 -0.79620111
0.69406098 -0.56270021 -0.79620111
0.69408 -0.56517494 -0.79620111
0.69409901 -0.56764966 -0.79620111
0.69411808 -0.57012445 -0.79620111
0.69413704 -0.57259923 -0.79620111
0.69415611 -0.57507402 -0.79620111
0.69417512 -0.5775488 -0.79620111
0.69419414 -0.58002347 -0.79620111
0.69421321 -0.58249825 -0.79620111
0.69423217 -0.58497304 -0.79620111
0.69425124 -0.58744782 -0.79620111
0.69427025 -0.58992255 -0.79620111
0.69428927 -0.59239733 -0.79620111
0.69430834 -0.59487212 -0.79620111
0.69432741 -0.5973469 -0.79620123
0.69434643 -0.59982163 -0.79620123
0.69436544 -0.60229641 -0.79620123
0.69438452 -0.6047712 -0.79620123
0.69440347 -0.60724598 -0.79620123
0.69442254 -0.60972071 -0.79620123
0.69444156 -0.61219543 -0.79620123
0.69446057 -0.61467022 -0.79620123
0.69447964 -0.617145 -0.79620123
0.6944986 -0.61961979 -0.79620123
0.69451767 -0.62209451 -0.79620123
0.69453669 -0.62456924 -0.79620123
0.6945557 -0.62704402 -0.79620123
0.69457477 -0.62951881 -0.79620123
0.69459379 -0.63199359 -0.79620123
0.6946128 -0.63446832 -0.79620123
0.69463181 -0.6369431 -0.79620123
0.69465083 -0.63941789 -0.79620123
0.6946699 -0.64189261 -0.79620123
0.69468892 -0.64436734 -0.79620123
0.69470793 -0.64684212 -0.79620123
0.694727 -0.64931691 -0.79620123
0.69474596 -0.65179169 -0.79620123
0.69476503 -0.65426642 -0.79620123
0.69478405 -0.65674114 -0.79620123
0.69480306 -0.65921599 -0.79620123
0.69482213 -0.66169077 -0.79620123
0.69484115 -0.66416556 -0.79620123
0.69486016 -0.66664028 -0.79620123
0.69487923 -0.66911507 -0.79620123
0.69489825 -0.67158979 -0.79620123
0.69491726 -0.67406458 -0.79620123
0.69493628 -0.6765393 -0.79620123
0.69495529 -0.67901409 -0.79620123
0.69497436 -0.68148887 -0.79620123
0.69499338 -0.68396366 -0.79620123
0.69501239 -0.68643844 -0.79620123
0.69503146 -0.68891311 -0.79620123
0.69505042 -0.69138789 -0.79620123
0.69506949 -0.69386268 -0.79620123
0.69508851 -0.69633746 -0.79620123
0.69510752 -0.69881219 -0.79620123
0.69512659 -0.70128697 -0.79620123
0.69514555 -0.7037617 -0.79620123
0.69516462 -0.70623648 -0.79620123
0.69518363 -0.70871121 -0.79620123
0.69520265 -0.71118599 -0.79620123
0.69522172 -0.71366078 -0.79620123
0.69524068 -0.71613556 -0.79620123
0.69525975 -0.71861035 -0.79620123
0.69527882 -0.72108507 -0.79620135
0.6952979 -0.72355986 -0.79620135
0.69531685 -0.72603464 -0.79620135
0.69533592 -0.72850943 -0.79620135
0.69535494 -0.73098415 -0.79620135
0.69537395 -0.73345894 -0.79620135
0.69539303 -0.73593372 -0.79620135
0.69541198 -0.73840845 -0.79620135
0.69543105 -0.74088317 -0.79620135
0.69545007 -0.74335796 -0.79620135
0.69546908 -0.74583274 -0.79620135
0.69548815 -0.74830753 -0.79620135
0.69550711 -0.75078231 -0.79620135
0.69552618 -0.75325704 -0.79620135
0.6955452 -0.75573176 -0.79620135
0.69556421 -0.75820655 -0.79620135
0.69558328 -0.76068133 -0.79620135
0.6956023 -0.76315606 -0.79620135
0.69562131 -0.76563084 -0.79620135
0.69564033 -0.76810563 -0.79620135
0.69565934 -0.77058035 -0.79620135
0.69567841 -0.77305514 -0.79620135
0.69569743 -0.77552986 -0.79620135
0.69571644 -0.77800465 -0.79620135
0.69573551 -0.78047943 -0.79620135
0.69575453 -0.78295428 -0.79620147
0.69577354 -0.785429 -0.79620147
0.69579262 -0.78790379 -0.79620147
0.69581157 -0.79037851 -0.79620147
0.69583064 -0.7928533 -0.79620147
0.69584966 -0.79532802 -0.79620147
0.69586867 -0.79780281 -0.79620147
0.69588774 -0.80027759 -0.79620147
0.69590676 -0.80275238 -0.79620147
0.68131596 0.77774704 -0.79619992
0.68133491 0.77527493 -0.79619992
0.68135399 0.77280289 -0.79619992
0.68137294 0.77033079 -0.79619992
0.68139195 0.76785874 -0.79620004
0.68141097 0.76538664 -0.79620004
0.68142998 0.76291466 -0.79620004
0.681449 0.76044255 -0.79620004
0.68146795 0.75797045 -0.79620004
0.68148702 0.75549835 -0.79620004
0.68150598 0.75302625 -0.79620004
0.68152499 0.7505542 -0.79620004
0.68154401 0.7480821 -0.79620004
0.68156302 0.74561 -0.79620004
0.68158203 0.7431379 -0.79620004
0.68160099 0.74066585 -0.79620004
0.68162006 0.73819375 -0.79620004
0.68163902 0.73572165 -0.79620004
0.68165803 0.73324955 -0.79620004
0.68167704 0.7307775 -0.79620004
0.68169606 0.7283054 -0.79620004
0.68171507 0.7258333 -0.79620004
0.68173403 0.72336119 -0.79620004
0.6817531 0.72088909 -0.79620004
0.68177205 0.71841705 -0.79620004
0.68179125 0.71594501 -0.79620004
0.6818102 0.71347296 -0.79620004
0.68182921 0.71100086 -0.79620004
0.68184823 0.70852882 -0.79620004
0.68186724 0.70605671 -0.79620004
0.68188626 0.70358461 -0.79620004
0.68190521 0.70111251 -0.79620004
0.68192428 0.69864041 -0.79620004
0.68194324 0.69616836 -0.79620004
0.68196225 0.69369626 -0.79620004
0.68198127 0.69122416 -0.79620004
0.68200028 0.68875206 -0.79620004
0.68201929 0.68628001 -0.79620004
0.68203825 0.68380791 -0.79620004
0.68205732 0.68133581 -0.79620004
0.68207628 0.6788637 -0.79620004
0.68209535 0.67639166 -0.79620004
0.6821143 0.67391956 -0.79620004
0.68213332 0.67144746 -0.79620004
0.68215233 0.66897535 -0.79620004
0.68217134 0.66650337 -0.79620039
0.68219036 0.66403133 -0.79620039
0.68220937 0.66155922 -0.79620039
0.68222839 0.65908712 -0.79620039
0.68224734 0.65661502 -0.79620039
0.68226641 0.65414298 -0.79620039
0.68228537 0.65167087 -0.79620039
0.68230444 0.64919883 -0.79620039
0.6823234 0.64672673 -0.79620039
0.68234241 0.64425462 -0.79620039
0.68236142 0.64178258 -0.79620039
0.68238044 0.63931048 -0.79620039
0.68239945 0.63683838 -0.79620039
0.68241841 0.63436615 -0.79620004
0.68243742 0.63189411 -0.79620004
0.68245643 0.62942201 -0.79620004
0.68247539 0.62694991 -0.79620004
0.68249446 0.62447792 -0.79620039
0.68251348 0.62200582 -0.79620039
0.68253249 0.61953378 -0.79620039
0.68255144 0.61706167 -0.79620039
0.68257052 0.61458957 -0.79620039
0.68258947 0.61211747 -0.79620039
0.68260854 0.60964543 -0.79620039
0.6826275 0.60717332 -0.79620039
0.68264651 0.60470122 -0.79620039
0.68266553 0.60222912 -0.79620039
0.68268454 0.59975708 -0.79620039
0.68270355 0.59728497 -0.79620039
0.68272251 0.59481287 -0.79620039
0.68274158 0.59234077 -0.79620039
0.68276054 0.58986866 -0.79620039
0.68277955 0.58739668 -0.79620039
0.68279856 0.58492458 -0.79620039
0.68281758 0.58245248 -0.79620039
0.68283659 0.57998037 -0.79620039
0.68285555 0.57750833 -0.79620039
0.68287462 0.57503623 -0.79620039
0.68289357 0.57256413 -0.79620039
0.68291259 0.57009202 -0.79620039
0.6829316 0.56761992 -0.79620039
0.68295062 0.56514788 -0.79620039
0.68296969 0.56267583 -0.79620051
0.6829887 0.56020373 -0.79620051
0.68300766 0.55773163 -0.79620051
0.68302673 0.55525959 -0.79620051
0.68304569 0.55278748 -0.79620051
0.6830647 0.55031538 -0.79620051
0.68308371 0.54784328 -0.79620051
